# .PCD v0.7 - Point Cloud Data file format
VERSION 0.7
FIELDS x y z
SIZE 4 4 4
TYPE F F F
COUNT 1 1 1
WIDTH 1368
HEIGHT 1
VIEWPOINT 0 0 0 1 0 0 0
POINTS 1368
DATA ascii
0.30910647 -0.0050295079 0.16866305
0.30907774 -0.00594289 0.16874999
0.3090657 -0.0068566636 0.16878629
0.30906725 -0.0077709598 0.1687817
0.30908343 -0.008686075 0.16873267
0.30910927 -0.0096019553 0.16865462
0.30913442 -0.010518093 0.16857842
0.30916137 -0.011434642 0.16849706
0.30920571 -0.012352854 0.16836289
0.30924967 -0.013271546 0.16822979
0.30929172 -0.014190572 0.16810256
0.30932879 -0.015109607 0.16799048
0.30936676 -0.01602916 0.16787559
0.3093946 -0.016948074 0.16779134
0.30940878 -0.017865775 0.16774842
0.30942225 -0.018783556 0.16770768
0.30943534 -0.019701444 0.16766813
0.30944687 -0.020619282 0.16763318
0.30945837 -0.021537246 0.16759846
0.3094646 -0.022454603 0.16757959
0.30948836 -0.023374598 0.16750768
0.30954081 -0.024299236 0.16734907
0.30964565 -0.025232758 0.16703194
0.30978507 -0.026173148 0.16661018
0.30991104 -0.027112868 0.16622898
0.3100166 -0.028050454 0.16590962
0.31013411 -0.028991411 0.1655542
0.31027538 -0.029938161 0.1651268
0.31047061 -0.030896928 0.16453615
0.31071168 -0.031867027 0.16380686
0.31097239 -0.032843899 0.16301817
0.31127003 -0.033831522 0.16211769
0.31173867 -0.034859411 0.16070002
0.35389823 0.026513267 0.029402971
0.34953529 0.024792794 0.04268229
0.34613878 0.023237243 0.05302012
0.34307846 0.021758839 0.062334657
0.34046912 0.020364022 0.070276618
0.33811203 0.019024877 0.077450871
0.33600616 0.017736932 0.083860397
0.33397242 0.01647979 0.09005034
0.33201253 0.015252342 0.096015632
0.33012241 0.014052991 0.10176849
0.32834786 0.012883834 0.10716969
0.32657006 0.011734976 0.1125806
0.3248927 0.010612758 0.11768597
0.32322279 0.0095103364 0.12276864
0.32180583 0.0084396442 0.12708127
0.32031181 0.0073819873 0.13162863
0.31876653 0.0063396739 0.13633204
0.31716418 0.0053134086 0.14120895
0.31554198 0.0043051466 0.14614636
0.31391871 0.0033156129 0.15108705
0.31232938 0.0023453322 0.15592447
0.30849844 0.0013739899 0.16758454
0.30838615 0.00045767205 0.16792637
0.30833602 -0.00045752732 0.16807884
0.30829278 -0.0013722071 0.16821045
0.30825037 -0.0022863988 0.16833958
0.30820531 -0.003200047 0.1684767
0.30817223 -0.0041134865 0.16857734
0.30814356 -0.0050266827 0.16866463
0.30811504 -0.005939553 0.16875151
0.30810344 -0.006852828 0.16878679
0.30810148 -0.0077664433 0.16879269
0.30811357 -0.0086808065 0.16875586
0.30813861 -0.0095960936 0.16867974
0.30816361 -0.010511669 0.16860363
0.30819169 -0.011427755 0.16851819
0.30823153 -0.012345084 0.16839692
0.30827564 -0.013263229 0.16826272
0.3083185 -0.014181777 0.16813219
0.30835825 -0.015100522 0.16801116
0.30839804 -0.016019726 0.1678901
0.30842298 -0.016937805 0.16781422
0.30843887 -0.017855154 0.16776586
0.30845481 -0.01877269 0.16771737
0.30847764 -0.019691268 0.1676479
0.30851406 -0.020611878 0.167537
0.30858457 -0.021537539 0.16732234
0.30871847 -0.022472991 0.16691476
0.30885261 -0.02341002 0.16650656
0.30895895 -0.024344346 0.16618291
0.309044 -0.025276517 0.16592401
0.30914423 -0.026212174 0.16561893
0.30930713 -0.02715967 0.16512313
0.30948102 -0.028110988 0.16459388
0.309744 -0.029080531 0.1637935
0.31002897 -0.030057248 0.16292614
0.31033775 -0.031041868 0.16198629
0.31065571 -0.03203189 0.16101849
0.3109504 -0.033020806 0.16012159
0.31125647 -0.034015536 0.15918997
0.31197995 -0.035104256 0.15698799
0.35419178 0.026698915 0.024708569
0.3493205 0.024903661 0.039625823
0.34588897 0.02333655 0.050134063
0.34277761 0.021845601 0.059661925
0.34011006 0.020438528 0.067830741
0.33778208 0.019096995 0.074959576
0.33560985 0.01779745 0.081611574
0.3335529 0.016533537 0.087910473
0.33160636 0.015302833 0.093871415
0.32968298 0.014096572 0.099761307
0.32790351 0.012923117 0.10521054
0.32609329 0.011768292 0.11075395
0.32435417 0.010638845 0.11607951
0.32294172 0.0095476424 0.1204049
0.32124731 0.008458931 0.1255936
0.31972939 0.0073976037 0.13024199
0.31824198 0.0063550728 0.13479674
0.31668073 0.0053274683 0.13957775
0.31512967 0.004318276 0.14432758
0.31339794 0.0033234367 0.14963055
0.31183106 0.0023511196 0.15442872
0.30758226 0.001373635 0.16743982
0.30742124 0.00045741047 0.16793287
0.30737224 -0.00045726815 0.16808286
0.30733007 -0.001371437 0.16821197
0.3072848 -0.00228507 0.16835067
0.30723894 -0.0031981659 0.16849104
0.30721045 -0.0041111819 0.16857839
0.30718189 -0.0050238655 0.16866577
0.3071534 -0.0059362194 0.16875303
0.30714136 -0.0068489597 0.16878986
0.30713594 -0.0077618854 0.16880652
0.30714458 -0.0086755259 0.16878006
0.30716914 -0.0095902374 0.16870487
0.30719522 -0.010505337 0.16862497
0.30722332 -0.011420885 0.16853896
0.30725861 -0.012337324 0.16843086
0.30730546 -0.013255147 0.16828746
0.30735359 -0.014173632 0.16813999
0.30739254 -0.015091794 0.16802076
0.30745327 -0.016012626 0.16783473
0.30749631 -0.016932258 0.16770297
0.30753052 -0.017851392 0.16759825
0.30765009 -0.018781096 0.16723198
0.30778676 -0.019714324 0.16681343
0.30790573 -0.020646822 0.16644919
0.30799165 -0.02157619 0.16618615
0.30807662 -0.022506425 0.16592592
0.30817342 -0.0234394 0.16562948
0.30833483 -0.02438345 0.16513517
0.30853501 -0.025335571 0.16452217
0.30878174 -0.026297731 0.16376656
0.30905479 -0.027267268 0.16293043
0.30937314 -0.028248003 0.1619556
0.30969119 -0.029232392 0.16098157
0.31000847 -0.030220326 0.16001001
0.31032902 -0.031212583 0.15902844
0.31061935 -0.032202516 0.15813932
0.3109079 -0.033195451 0.15725568
0.31125826 -0.034204844 0.15618286
0.31199798 -0.035303168 0.15391758
0.35437754 0.02687246 0.020292819
0.34933645 0.025044762 0.035824955
0.34564158 0.023437256 0.047209144
0.34248954 0.021934789 0.056921005
0.33975786 0.020514607 0.065337598
0.33733407 0.01915784 0.072805405
0.33519047 0.017856417 0.079410017
0.33314013 0.016588494 0.085727334
0.33119929 0.01535381 0.091707349
0.3292625 0.014142135 0.097674668
0.32746166 0.012963024 0.10322326
0.32563061 0.011802927 0.10886502
0.32393515 0.010672553 0.11408889
0.32234162 0.0095676538 0.11899871
0.32056147 0.0084721101 0.12448347
0.31922162 0.0074166674 0.12861174
0.31772417 0.0063708983 0.13322556
0.31617156 0.0053408593 0.13800919
0.31460935 0.0043287124 0.1428225
0.31301981 0.0033342657 0.14772004
0.3113282 0.002356905 0.15293202
0.30680504 0.0013744946 0.16686833
0.30648792 0.0004572382 0.16784552
0.30641037 -0.0004570116 0.16808444
0.30636483 -0.0013706359 0.16822466
0.30631894 -0.0022837222 0.16836619
0.30627805 -0.003196375 0.16849211
0.30624962 -0.0041088779 0.16857967
0.30622035 -0.0050210212 0.16866979
0.30619216 -0.0059328633 0.16875669
0.30617684 -0.0068449406 0.16880384
0.30617505 -0.0077575105 0.16880935
0.3061837 -0.0086706365 0.16878286
0.30620083 -0.0095843878 0.16872996
0.30622822 -0.010499026 0.16864565
0.30625811 -0.011414169 0.16855353
0.30631489 -0.01233178 0.16837865
0.30637676 -0.01325049 0.16818798
0.30644804 -0.014170771 0.16796836
0.30657613 -0.015097367 0.16757369
0.30672592 -0.01602768 0.16711208
0.30687648 -0.016959822 0.16664827
0.30694732 -0.017884642 0.16643
0.30701739 -0.018810196 0.16621414
0.30709776 -0.019737866 0.16596645
0.30722463 -0.02067259 0.16557553
0.30738562 -0.021613477 0.16507956
0.3075963 -0.022563364 0.16443041
0.30785698 -0.023523165 0.16362721
0.30812824 -0.024487644 0.16279149
0.3084287 -0.025459994 0.16186568
0.30873024 -0.026436031 0.16093668
0.3090308 -0.027415426 0.16001058
0.3093347 -0.028398924 0.15907431
0.30965865 -0.029389674 0.15807611
0.31000137 -0.03038777 0.15702012
0.3102906 -0.031379398 0.156129
0.31060934 -0.032380357 0.15514693
0.31079701 -0.033357847 0.15456873
0.31119949 -0.034383353 0.15332872
0.35475948 0.027073897 0.015218675
0.3492893 0.025179472 0.032176971
0.34544691 0.023545444 0.0440889
0.34222972 0.022028219 0.054062545
0.33944848 0.020596199 0.062684774
0.33695295 0.019226251 0.070421278
0.33477205 0.017916141 0.077182353
0.33273807 0.016645044 0.083487988
0.33077681 0.01540405 0.089568138
0.32886958 0.014190394 0.0954808
0.32700577 0.013002344 0.10125887
0.32520628 0.011840547 0.10683745
0.32355621 0.010709117 0.11195296
0.32182053 0.0095923031 0.11733377
0.32034329 0.0085087968 0.12191343
0.31873575 0.0074369106 0.12689698
0.31721008 0.0063870456 0.13162684
0.3157354 0.0053567598 0.13619852
0.31410944 0.0043398058 0.14123917
0.31240255 0.0033402967 0.14653081
0.3107959 0.0023623223 0.15151164
0.30913222 0.0014027284 0.15666923
0.30557469 0.00045712307 0.16769806
0.30544591 -0.00045674469 0.16809726
0.30540031 -0.0013698321 0.16823864
0.30535474 -0.0022823841 0.1683799
0.30531532 -0.0031945265 0.16850215
0.30528623 -0.0041064792 0.1685923
0.30525714 -0.0050180908 0.16868243
0.30523622 -0.0059296712 0.16874734
0.30521607 -0.0068410402 0.1688098
0.3052153 -0.0077531412 0.16881213
0.30522543 -0.0086658392 0.16878083
0.30526394 -0.0095804101 0.16866139
0.30531871 -0.010496533 0.16849154
0.30545276 -0.01141912 0.16807604
0.30564564 -0.012347952 0.16747808
0.30582756 -0.013278116 0.16691414
0.30590841 -0.014201214 0.16666344
0.30597621 -0.015123994 0.16645327
0.30604726 -0.016047906 0.166233
0.3061195 -0.016972782 0.16600907
0.30626881 -0.017907342 0.16554612
0.30641812 -0.018843653 0.16508332
0.3066797 -0.019795906 0.16427234
0.30695671 -0.020753276 0.16341355
0.30723441 -0.021713987 0.16255274
0.30752209 -0.022679411 0.16166082
0.30780607 -0.023647659 0.1607804
0.30810392 -0.024621395 0.15985715
0.30840027 -0.025598397 0.15893838
0.30869022 -0.026577812 0.15803948
0.30897906 -0.027560441 0.15714401
0.30927709 -0.02854811 0.15622008
0.30958527 -0.029541159 0.15526474
0.30991024 -0.030541044 0.15425721
0.31023246 -0.031544197 0.15325832
0.31050608 -0.03254129 0.15241009
0.31071103 -0.033527274 0.1517747
0.31120893 -0.034578502 0.15023115
0.3495084 0.025349541 0.02765739
0.34520203 0.023648774 0.041090608
0.34197444 0.022123225 0.051158667
0.33913988 0.020678796 0.060000777
0.33667597 0.019306201 0.067686677
0.33441594 0.017982613 0.074736476
0.33232999 0.016701682 0.081243396
0.33035272 0.015454718 0.087411284
0.32846218 0.014238046 0.093308568
0.32656705 0.013043377 0.099220276
0.32480183 0.011879939 0.10472661
0.32308799 0.010740554 0.11007267
0.32130045 0.0096172849 0.11564881
0.31987071 0.0085331192 0.12010866
0.3181206 0.007451653 0.12556791
0.31670117 0.0064035743 0.12999558
0.31525695 0.0053714653 0.13450074
0.31355077 0.0043494622 0.1398229
0.31194431 0.003349686 0.1448341
0.31025499 0.0023676746 0.15010369
0.30866501 0.0014065099 0.15506351
0.30475658 0.00045728771 0.16725534
0.30449721 -0.00045652129 0.16806448
0.30443722 -0.0013690322 0.16825154
0.30439198 -0.0022810514 0.16839278
0.30435553 -0.0031927184 0.16850641
0.30432391 -0.0041040829 0.16860503
0.30430132 -0.0050153667 0.16867551
0.3042866 -0.0059266863 0.16872144
0.30428576 -0.0068384469 0.16872406
0.30432567 -0.0077522458 0.16859952
0.30453563 -0.0086760614 0.16794464
0.30471373 -0.0096003832 0.16738904
0.30486947 -0.010525289 0.16690326
0.30493647 -0.01144548 0.16669425
0.30500048 -0.012366228 0.16649449
0.30506903 -0.013288119 0.16628066
0.30515981 -0.014212853 0.16599759
0.30531079 -0.015144534 0.16552663
0.30547446 -0.016079312 0.16501606
0.30577081 -0.017030533 0.16409153
0.30605271 -0.017983586 0.16321227
0.30634847 -0.018941654 0.16228962
0.30664852 -0.019903759 0.16135374
0.30693829 -0.020868048 0.16044977
0.30721837 -0.021834411 0.15957618
0.30750132 -0.022804504 0.15869352
0.30780548 -0.023781138 0.15774474
0.30809879 -0.024759667 0.15682974
0.3083857 -0.025740623 0.15593478
0.30860606 -0.026713759 0.15524742
0.30893144 -0.027707813 0.15423238
0.30919537 -0.02869463 0.15340915
0.30948192 -0.029688781 0.15251529
0.30978304 -0.030689118 0.15157595
0.31008121 -0.031692434 0.15064579
0.3103146 -0.032686062 0.14991772
0.31056124 -0.033685222 0.14914846
0.34953228 0.025496585 0.023698568
0.34506077 0.023765897 0.037733912
0.34172976 0.022220539 0.048189461
0.33884454 0.020763788 0.057245672
0.33628255 0.019374952 0.065287471
0.33400157 0.018044127 0.072447062
0.33190411 0.016757324 0.079030633
0.32993311 0.015506347 0.085217357
0.3280358 0.014284713 0.091172695
0.32616162 0.013087351 0.097055495
0.32436442 0.011917527 0.10269666
0.32262582 0.010772721 0.10815394
0.32091543 0.0096501773 0.11352253
0.31927121 0.008551307 0.11868334
0.31770605 0.0074755019 0.12359631
0.31622022 0.0064213695 0.12825996
0.31466913 0.0053827642 0.13312858
0.31301618 0.0043598707 0.13831705
0.31146383 0.0033587194 0.14318961
0.3098028 0.0023744053 0.14840329
0.3081581 0.0014099804 0.15356585
0.3062638 0.00046436433 0.15951166
0.30356944 -0.00045635755 0.1679689
0.30348468 -0.0013683171 0.16823491
0.30343285 -0.0022797582 0.16839764
0.30340481 -0.0031910781 0.16848567
0.30340463 -0.0041028098 0.16848624
0.30338961 -0.005014054 0.16853341
0.30354723 -0.0059317905 0.16803858
0.30374405 -0.0068531465 0.1674208
0.30389863 -0.0077747093 0.16693556
0.30396435 -0.0086930906 0.16672933
0.30403256 -0.0096124094 0.1665152
0.30410084 -0.010532543 0.16630095
0.30420971 -0.011456505 0.16595921
0.30434418 -0.012383817 0.16553703
0.30460685 -0.01332377 0.16471267
0.30488452 -0.014268232 0.16384101
0.30519199 -0.015218915 0.16287589
0.30549216 -0.016172495 0.16193375
0.30577964 -0.017128244 0.16103145
0.30606705 -0.018087408 0.16012922
0.30635923 -0.019050565 0.15921214
0.30662358 -0.020013638 0.15838242
0.30689192 -0.020980388 0.15754014
0.30721104 -0.02195742 0.15653852
0.30749035 -0.022932449 0.15566176
0.30772772 -0.023904445 0.15491667
0.30803996 -0.024891052 0.15393656
0.30825967 -0.025866246 0.15324697
0.30853271 -0.026853088 0.15238985
0.30878386 -0.027839329 0.15160167
0.30906963 -0.028834838 0.15070462
0.30938166 -0.029838657 0.14972526
0.30964649 -0.030837074 0.14889395
0.30987167 -0.031830743 0.1481871
0.31008011 -0.032823648 0.14753294
0.31074983 -0.033916365 0.14543074
0.34978905 0.025675246 0.018958688
0.34495914 0.023889218 0.034214199
0.34152597 0.022323733 0.045057952
0.33857101 0.020852163 0.054391384
0.3359611 0.019452019 0.062634766
0.33357155 0.018104803 0.070182264
0.33148408 0.016814142 0.07677567
0.32951623 0.015558803 0.082991242
0.3276099 0.014331954 0.089012444
0.3257578 0.013131947 0.094862282
0.32393837 0.011956326 0.10060906
0.32223558 0.010809774 0.10598749
0.32048821 0.0096810507 0.11150646
0.31875286 0.0085738236 0.11698776
0.31741744 0.0075052725 0.12120563
0.3156569 0.0064361678 0.12676644
0.31417498 0.00539727 0.13144714
0.31262156 0.0043741646 0.13635367
0.31100982 0.0033684091 0.14144444
0.30934188 0.0023810824 0.14671266
0.30766368 0.0014136028 0.15201327
0.30581284 0.00046566944 0.15785927
0.30275008 -0.00045651596 0.16753307
0.30256644 -0.0013679012 0.16811314
0.30254126 -0.0022794593 0.16819265
0.30266443 -0.0031938194 0.16780367
0.30279487 -0.0041098483 0.16739163
0.30289349 -0.0050263894 0.16708016
0.30297759 -0.0059435465 0.16681448
0.30305696 -0.0068614967 0.16656378
0.30313542 -0.0077803493 0.16631594
0.3032591 -0.0087027075 0.16592532
0.30345896 -0.0096313246 0.16529411
0.30388224 -0.010577691 0.16395709
0.30409211 -0.011513168 0.16329432
0.30435213 -0.012455205 0.16247293
0.30464906 -0.013403545 0.1615352
0.30494511 -0.01435536 0.16059998
0.30523247 -0.015309851 0.15969241
0.30552083 -0.016267885 0.15878159
0.30580917 -0.017229363 0.15787086
0.30609125 -0.018193558 0.15697989
0.30636829 -0.019160509 0.15610483
0.30660689 -0.020125829 0.15535125
0.30692691 -0.021104952 0.15434048
0.30715352 -0.022074781 0.15362468
0.30750218 -0.023065194 0.1525234
0.30764535 -0.024028454 0.15207118
0.30796388 -0.025021199 0.15106508
0.30822858 -0.026008908 0.15022904
0.30846429 -0.026994839 0.14948452
0.30870962 -0.027985286 0.14870965
0.30897957 -0.028983152 0.14785707
0.30921963 -0.02997862 0.14709878
0.30946046 -0.030977102 0.14633816
0.30973163 -0.031984549 0.14548153
0.31013012 -0.033021484 0.14422297
0.31077749 -0.034116 0.14217818
0.35038364 0.025899621 0.013089895
0.34496784 0.024027554 0.030303657
0.34127831 0.022422964 0.042030692
0.3383007 0.020941915 0.051494837
0.33562279 0.019528193 0.060006499
0.33324414 0.018176354 0.067566872
0.33109272 0.016874284 0.074405193
0.32908955 0.015611009 0.080772042
0.32719702 0.014380793 0.086787462
0.32535386 0.013177046 0.092645824
0.32351345 0.011995647 0.098495483
0.32177317 0.010842697 0.10402685
0.32005045 0.0097116744 0.10950249
0.31843352 0.0086067691 0.11464179
0.31678319 0.0075197984 0.11988735
0.31514162 0.006453013 0.12510502
0.31369478 0.0054124044 0.12970364
0.31223035 0.0043887147 0.13435829
0.31054401 0.0033779626 0.13971823
0.30888247 0.0023878592 0.14499933
0.30716825 0.0014172577 0.15044791
0.3054077 0.00046712725 0.15604383
0.30357552 -0.00046162007 0.16186726
0.30202883 -0.001370913 0.16678336
0.30199742 -0.0022843832 0.16688314
0.30205676 -0.0031993845 0.16669461
0.3021161 -0.0041151 0.16650593
0.3022224 -0.0050330814 0.16616812
0.30234516 -0.0059529832 0.16577798
0.30260313 -0.0068804584 0.164958
0.3032105 -0.0078288894 0.1630275
0.30337259 -0.0087591931 0.16251221
0.30357587 -0.0096940454 0.1618661
0.30383828 -0.010635427 0.16103211
0.30413479 -0.01158253 0.16008964
0.30441791 -0.012532107 0.15918982
0.30470088 -0.01348508 0.15829033
0.30498481 -0.01444154 0.15738794
0.30527934 -0.015402468 0.15645176
0.30558294 -0.016367894 0.1554867
0.30583638 -0.017331384 0.15468127
0.30613592 -0.018303331 0.15372917
0.3064509 -0.01928078 0.15272799
0.30662179 -0.020243395 0.15218484
0.30693796 -0.021227716 0.15117991
0.30715132 -0.022201311 0.15050176
0.30744642 -0.023189509 0.14956379
0.30764818 -0.024166947 0.14892256
0.3079443 -0.025161849 0.14798129
0.30824947 -0.026161799 0.14701134
0.30853295 -0.027161714 0.14611024
0.30875796 -0.028154656 0.1453951
0.30899051 -0.029151689 0.14465594
0.30928773 -0.030163771 0.14371121
0.30958605 -0.031179629 0.14276308
0.30987197 -0.032196585 0.14185429
0.31021038 -0.033227868 0.14077866
0.31125158 -0.0344132 0.13746923
0.34508926 0.024181459 0.025987387
0.34108317 0.022529539 0.038801312
0.33805037 0.021034937 0.048501968
0.33531603 0.019608587 0.057248056
0.3328582 0.01824289 0.06510973
0.33069205 0.016934251 0.072038293
0.32865569 0.015663186 0.078551829
0.32677257 0.014429255 0.084575176
0.324931 0.013221237 0.090465605
0.32311329 0.012037146 0.09627974
0.32134491 0.010878168 0.1019361
0.3196989 0.0097476048 0.10720098
0.31792301 0.0086302692 0.11288142
0.31633261 0.007542823 0.11796844
0.31487417 0.0064797951 0.1226334
0.31320411 0.0054273652 0.12797529
0.31163299 0.0043978235 0.13300061
0.31007594 0.0033875788 0.137981
0.30843219 0.002394852 0.14323872
0.30667388 0.0014209641 0.1488629
0.30491379 0.00046833363 0.15449268
0.30296957 -0.00046245588 0.16071147
0.30203089 -0.0013788543 0.1637139
0.30169338 -0.0022929888 0.16479343
0.30171609 -0.0032106643 0.16472089
0.30193537 -0.0041339644 0.16401941
0.30241555 -0.0050685913 0.16248348
0.30269173 -0.0060010073 0.16160017
0.30283794 -0.0069308686 0.16113254
0.30307445 -0.0078671398 0.16037601
0.30334145 -0.0088080214 0.15952203
0.30361426 -0.0097525036 0.15864933
0.30389458 -0.010700806 0.15775263
0.30417812 -0.01165274 0.15684578
0.30447599 -0.012609272 0.15589303
0.30478537 -0.013570415 0.15490347
0.30503196 -0.014529417 0.15411472
0.30533695 -0.015497228 0.15313908
0.30561262 -0.016465621 0.15225744
0.30585808 -0.017433971 0.15147224
0.30610907 -0.018405942 0.1506694
0.30637482 -0.019382775 0.14981943
0.30663005 -0.020361453 0.14900315
0.30688676 -0.021343425 0.14818192
0.30719942 -0.022336442 0.14718193
0.30743629 -0.02332202 0.14642423
0.30765986 -0.024308415 0.14570898
0.3080017 -0.025316456 0.14461565
0.30826783 -0.026316043 0.1437645
0.30853862 -0.027319657 0.14289826
0.30881569 -0.028327657 0.14201212
0.3091085 -0.029341917 0.14107549
0.30940685 -0.030360771 0.14012122
0.30973905 -0.031389881 0.13905871
0.31005937 -0.032420605 0.13803405
0.31049341 -0.033478931 0.13664567
0.34526485 0.024343908 0.021446109
0.34094012 0.022643531 0.03536731
0.33781135 0.02113031 0.045438826
0.33503664 0.019692829 0.054370522
0.3325341 0.018316409 0.06242615
0.33033341 0.016998876 0.069510221
0.32825312 0.01571873 0.076206565
0.3263433 0.014477884 0.082354188
0.32451022 0.0132661 0.088254809
0.3227101 0.012078913 0.094049454
0.32091296 0.010913815 0.099834442
0.31920794 0.0097758984 0.10532284
0.31751928 0.008659564 0.11075866
0.31589651 0.0075667747 0.11598229
0.31432354 0.0064956932 0.12104559
0.31258142 0.0054380847 0.12665343
0.31117636 0.004410889 0.13117635
0.30967548 0.0033987456 0.13600761
0.30798435 0.0024019636 0.14145136
0.3062005 0.0014249055 0.14719343
0.30445307 0.00046965497 0.15281844
0.30260491 -0.00046403514 0.15876764
0.30182579 -0.0013849981 0.1612756
0.301653 -0.002305703 0.16183183
0.30191708 -0.0032336048 0.1609818
0.30209732 -0.0041624247 0.16040161
0.30229053 -0.0050938707 0.15977964
0.30257714 -0.0060313586 0.15885708
0.30285609 -0.0069719828 0.15795919
0.30313721 -0.0079161134 0.15705419
0.30342078 -0.0088638049 0.15614134
0.30372569 -0.0098163057 0.15515989
0.30403021 -0.01077249 0.15417963
0.30428854 -0.011728866 0.15334809
0.30458921 -0.01269186 0.15238026
0.30477113 -0.013648041 0.15179464
0.30508283 -0.014618666 0.15079129
0.30530688 -0.015584289 0.15007001
0.30561161 -0.016561223 0.1490891
0.30584735 -0.017534098 0.14833045
0.30617577 -0.018520836 0.14727312
0.3064236 -0.019501522 0.14647532
0.30665854 -0.020483533 0.14571911
0.30699411 -0.021482171 0.14463896
0.30723578 -0.022471474 0.143861
0.30749285 -0.023466013 0.14303344
0.30777106 -0.024466952 0.14213794
0.30805892 -0.025472831 0.14121133
0.30833608 -0.026480421 0.14031923
0.3086189 -0.027492369 0.13940871
0.3089141 -0.028509971 0.13845855
0.30922884 -0.029534791 0.13744539
0.30952799 -0.030560458 0.1364823
0.30984414 -0.031593114 0.13546467
0.31016263 -0.032630093 0.13443953
0.31081221 -0.033740412 0.1323486
0.34579536 0.024552761 0.015701354
0.3408162 0.022761136 0.031831801
0.33751181 0.021219952 0.042536795
0.3347618 0.019778542 0.051445663
0.33222598 0.018392393 0.059660792
0.32994142 0.017061096 0.067061722
0.32786125 0.015775874 0.073800683
0.32592434 0.01452793 0.080075562
0.32408661 0.013311271 0.086028934
0.32227629 0.012119018 0.091893733
0.32051086 0.010951797 0.097613037
0.3187722 0.0098077329 0.1032455
0.31711751 0.008689302 0.10860616
0.31544563 0.0075903293 0.11402237
0.31383523 0.006514255 0.11923933
0.31232542 0.0054612658 0.12413055
0.31070536 0.0044237133 0.12937886
0.30914223 0.0034071999 0.13444275
0.30752793 0.0024090267 0.13967252
0.30573365 0.0014289524 0.14548528
0.30399078 0.00047098691 0.15113142
0.30224442 -0.00046564557 0.15678898
0.30167583 -0.0013917194 0.158631
0.30158055 -0.0023180754 0.15893963
0.30176789 -0.003249316 0.15833279
0.30205464 -0.0041855853 0.15740383
0.30233857 -0.0051252684 0.15648398
0.30261123 -0.0060679764 0.1556007
0.30287313 -0.0070135272 0.15475222
0.30315495 -0.0079633165 0.15383929
0.30347168 -0.0089185834 0.1528132
0.30373052 -0.0098740077 0.15197462
0.30404174 -0.010836283 0.15096638
0.30430147 -0.011798428 0.15012494
0.30451408 -0.012759861 0.14943618
0.30483532 -0.013733528 0.14839554
0.30511403 -0.014707095 0.14749253
0.30536371 -0.015681138 0.14668375
0.30564839 -0.016661987 0.14576143
0.30597049 -0.017650548 0.14471805
0.30620885 -0.018633068 0.14394575
0.30642191 -0.019615324 0.14325565
0.3067289 -0.020612547 0.14226097
0.30700931 -0.021609861 0.14135259
0.30727077 -0.022607885 0.14050561
0.30755597 -0.023612665 0.13958168
0.30783373 -0.024619773 0.13868189
0.30810827 -0.025629763 0.13779241
0.3083927 -0.026644766 0.13687098
0.3086949 -0.027666351 0.13589203
0.3090069 -0.028693404 0.13488126
0.30933112 -0.029726554 0.13383085
0.30965486 -0.030763572 0.1327821
0.30994275 -0.031797428 0.13184947
0.31034994 -0.032859251 0.13053036
0.31140548 -0.034062888 0.12711078
0.34089804 0.022904813 0.027584255
0.33730507 0.021321215 0.039299011
0.33451885 0.019868704 0.048383296
0.33190203 0.01846767 0.056915522
0.32958192 0.017127141 0.064480126
0.3274388 0.01583096 0.071467638
0.32550308 0.014578377 0.077778935
0.32366031 0.013356764 0.083787262
0.32184857 0.012160024 0.089694321
0.3201279 0.010991464 0.095304489
0.3183676 0.0098417597 0.10104394
0.31669194 0.0087181469 0.10650736
0.31501669 0.0076151728 0.11196947
0.31338519 0.0065345652 0.11728889
0.3118712 0.0054780114 0.12222517
0.31012988 0.0044337944 0.12790263
0.30864218 0.0034164682 0.13275325
0.30705613 0.0024159364 0.13792455
0.30526614 0.0014330411 0.14376074
0.30346656 0.00047214399 0.1496281
0.30190825 -0.00046734975 0.15470901
0.30148479 -0.001398141 0.15608963
0.30150318 -0.0023305179 0.1560297
0.30178267 -0.0032687439 0.15511844
0.30204725 -0.0042099967 0.15425575
0.30238748 -0.0051570651 0.15314651
0.30274177 -0.0061088833 0.15199137
0.30296272 -0.0070589078 0.15127096
0.30317876 -0.0080113942 0.15056658
0.30354261 -0.0089751808 0.14938021
0.30378759 -0.0099357646 0.14858145
0.30398616 -0.010896077 0.14793408
0.30429912 -0.011867634 0.14691365
0.30458635 -0.012840905 0.14597702
0.30487937 -0.013818225 0.14502174
0.30511767 -0.014793934 0.14424473
0.30537587 -0.015774593 0.14340293
0.30567366 -0.016762694 0.14243203
0.30592322 -0.017748972 0.14161831
0.30619055 -0.018740447 0.14074677
0.30647272 -0.019737091 0.13982671
0.30675656 -0.020737424 0.13890129
0.30703557 -0.021740584 0.13799155
0.30730379 -0.022745619 0.13711697
0.30757302 -0.023754103 0.13623917
0.30785966 -0.024768634 0.13530457
0.30816045 -0.025788995 0.13432389
0.30846196 -0.026813189 0.13334078
0.30877382 -0.027842894 0.1323241
0.30908686 -0.028876659 0.13130343
0.30942965 -0.029919861 0.13018578
0.30974811 -0.03096256 0.12914747
0.3101303 -0.032021929 0.12790138
0.3107267 -0.033130161 0.12595671
0.34101719 0.023054689 0.023163855
0.33710992 0.021424998 0.035985768
0.33422929 0.019954875 0.045438707
0.33158559 0.018544605 0.054114223
0.32921857 0.017193606 0.061881721
0.3271091 0.015895024 0.068804085
0.32508484 0.014629671 0.075446904
0.32324162 0.013403386 0.081495464
0.32144344 0.012203123 0.087396383
0.31971121 0.011029406 0.093080819
0.3179751 0.0098769022 0.09877795
0.31626031 0.0087470133 0.10440516
0.31459606 0.0076406961 0.10986656
0.31295493 0.0065559121 0.11525196
0.311369 0.0054933229 0.12045628
0.30973762 0.0044490984 0.12580985
0.30818596 0.0034267963 0.13090169
0.30654585 0.002422333 0.13628381
0.30483019 0.0014374711 0.14191401
0.3028816 0.00047312668 0.1483084
0.30167031 -0.00046937811 0.15228331
0.30139309 -0.0014055608 0.15319294
0.30152071 -0.0023445755 0.15277424
0.30178392 -0.0032881079 0.15191045
0.30209407 -0.0042362059 0.15089267
0.30250123 -0.0051914458 0.14955652
0.30277997 -0.006146559 0.14864188
0.30298644 -0.0071017677 0.1479643
0.30329376 -0.0080648372 0.14695585
0.3035143 -0.0090266103 0.14623213
0.30379125 -0.0099947797 0.14532322
0.30402431 -0.010963251 0.14455855
0.3042731 -0.011935825 0.14374208
0.30460873 -0.012918737 0.14264065
0.3048442 -0.013896813 0.14186794
0.30510765 -0.01488049 0.14100337
0.30537781 -0.015868111 0.14011693
0.30565518 -0.016859857 0.13920671
0.30592769 -0.017854484 0.13831228
0.30619892 -0.018852323 0.13742232
0.30647105 -0.01985364 0.13652927
0.30674416 -0.020858452 0.13563311
0.30701977 -0.021866998 0.13472861
0.30730784 -0.022880763 0.13378334
0.30759627 -0.023898149 0.13283688
0.30789125 -0.024920139 0.1318689
0.30820292 -0.025948523 0.13084608
0.30855286 -0.026987279 0.12969768
0.30890787 -0.028031256 0.12853271
0.30920917 -0.029069819 0.12754405
0.30948615 -0.030107532 0.12663496
0.30979365 -0.031154608 0.12562597
0.31000361 -0.032185882 0.124937
0.31073952 -0.033328801 0.12252212
0.34143418 0.02324252 0.017706335
0.33693179 0.021531982 0.032577455
0.33391166 0.020039015 0.042552888
0.33131462 0.018627124 0.051130652
0.32891333 0.017266465 0.059061944
0.32668591 0.015951408 0.066418886
0.32468063 0.014682758 0.073042154
0.32282239 0.013450522 0.079179764
0.32102817 0.01224601 0.085105956
0.31929469 0.01106781 0.090831578
0.31757778 0.0099121779 0.096502423
0.31585956 0.0087778568 0.10217762
0.31419593 0.0076674805 0.10767251
0.31252378 0.0065774769 0.11319548
0.31090546 0.0055101383 0.11854064
0.30943787 0.0044671763 0.12338793
0.30771244 0.0034368699 0.12908691
0.30612576 0.002430209 0.13432765
0.30440414 0.0014420465 0.14001405
0.30239296 0.00047442102 0.14665687
0.30146873 -0.00047154381 0.14970952
0.30136967 -0.0014137065 0.15003663
0.30162597 -0.002360167 0.14919007
0.30183959 -0.0033088881 0.14848465
0.30207068 -0.0042607607 0.14772123
0.30243081 -0.0052199289 0.1465317
0.30268583 -0.0061793267 0.14568955
0.3029328 -0.0071415249 0.1448738
0.30319577 -0.0081076473 0.14400512
0.30352277 -0.0090808282 0.14292514
0.30378821 -0.010054059 0.14204836
0.30401582 -0.011027887 0.14129663
0.30428183 -0.012007535 0.14041799
0.30454874 -0.012990574 0.13953638
0.30481559 -0.013976931 0.13865501
0.30508226 -0.014966592 0.13777423
0.3053475 -0.01595943 0.13689804
0.30561426 -0.016955731 0.13601708
0.30588597 -0.017955929 0.13511962
0.30616191 -0.018960021 0.1342082
0.30644152 -0.019968018 0.13328469
0.30672207 -0.020979624 0.13235807
0.3070161 -0.021996614 0.13138682
0.30732647 -0.023019649 0.1303618
0.30766135 -0.024050299 0.12925565
0.30796802 -0.025080627 0.12824285
0.30827054 -0.026114099 0.12724358
0.30855662 -0.027148519 0.12629873
0.30882868 -0.028184015 0.12540007
0.30906332 -0.029216019 0.12462521
0.30932689 -0.030256456 0.1237545
0.30979353 -0.031339992 0.12221318
0.3101837 -0.032413859 0.12092453
0.31118652 -0.03362038 0.1176123
0.33691514 0.021658955 0.028592169
0.33367038 0.020132536 0.039379537
0.33103698 0.018709946 0.048134446
0.32857016 0.017336518 0.056335509
0.32633021 0.016014596 0.063782334
0.32426429 0.014735452 0.070650578
0.32240015 0.013497987 0.076847851
0.32060599 0.01228891 0.082812786
0.31887656 0.011106569 0.088562369
0.31717497 0.0099475505 0.094219327
0.31546921 0.0088096233 0.099890292
0.31378108 0.0076938961 0.10550243
0.31209666 0.006599464 0.11110246
0.31048 0.0055284686 0.11647713
0.30891073 0.0044790613 0.12169421
0.30724192 0.0034471296 0.12724227
0.30570844 0.0024382232 0.13234031
0.30402622 0.0014471287 0.13793296
0.30199474 0.00047601407 0.14468676
0.3013314 -0.00047393661 0.14689201
0.30134124 -0.0014219023 0.14685935
0.30158073 -0.0023735873 0.14606315
0.30181956 -0.0033282586 0.1452691
0.30209374 -0.0042869174 0.14435756
0.30237025 -0.005249091 0.14343834
0.3026194 -0.0062136152 0.14261001
0.30286813 -0.0071812402 0.14178312
0.30315548 -0.0081540374 0.14082783
0.30343032 -0.0091296919 0.13991398
0.30368912 -0.010107731 0.13905364
0.30395016 -0.011089176 0.13818574
0.30421305 -0.012074036 0.13731182
0.30448025 -0.013062553 0.13642347
0.30474973 -0.014054622 0.13552767
0.30502141 -0.01505028 0.13462442
0.30529869 -0.016049925 0.13370258
0.30557591 -0.017053032 0.13278097
0.30585474 -0.018059803 0.13185394
0.30613464 -0.019070193 0.13092351
0.30646008 -0.020089941 0.12984151
0.30675924 -0.021110229 0.12884682
0.30703086 -0.022130374 0.12794393
0.30732396 -0.023157094 0.1269694
0.30758882 -0.024183141 0.12608898
0.30788416 -0.025217382 0.12510711
0.30806631 -0.026236529 0.12450159
0.30847201 -0.027296472 0.12315273
0.30884501 -0.028355656 0.12191272
0.30915523 -0.029407913 0.12088132
0.30946839 -0.030464619 0.11984015
0.30979967 -0.031528819 0.11873883
0.31017828 -0.032606803 0.11748016
0.3118766 -0.033966448 0.11183405
0.33702448 0.021802142 0.024137497
0.3333869 0.020222522 0.036310434
0.3307367 0.018791405 0.045179129
0.32824609 0.017409276 0.053513646
0.32598841 0.016079815 0.061068833
0.32393533 0.014796215 0.067939222
0.32197672 0.013545927 0.074493587
0.32018799 0.012332631 0.080479503
0.31846541 0.011146259 0.086243868
0.31676078 0.0099826669 0.091948271
0.31507546 0.0088415919 0.097588122
0.31337255 0.0077209268 0.10328668
0.31170526 0.0066231792 0.10886627
0.31005138 0.0055469098 0.1144008
0.30846769 0.0044934736 0.11970055
0.30695587 0.0034615821 0.12475967
0.30526286 0.0024458885 0.13042516
0.30360085 0.0014518239 0.13598692
0.30168951 0.00047791924 0.14238322
0.30119842 -0.00047637202 0.14402652
0.30124313 -0.0014295388 0.14387685
0.30149716 -0.0023865663 0.14302683
0.30176872 -0.0033471819 0.1421181
0.30203137 -0.0043109674 0.14123917
0.30228198 -0.0052776453 0.14040053
0.30254263 -0.0062478939 0.13952816
0.30282167 -0.0072222943 0.13859445
0.30309132 -0.0081997104 0.13769209
0.30335104 -0.0091799293 0.13682294
0.30361164 -0.01016348 0.13595086
0.30387318 -0.011150382 0.13507569
0.30414453 -0.012141354 0.13416761
0.30442381 -0.013136419 0.13323307
0.30470258 -0.014134959 0.13230014
0.30498043 -0.015136923 0.13137031
0.30525815 -0.016142374 0.13044095
0.30555075 -0.017152963 0.12946188
0.30582386 -0.018164974 0.12854779
0.30610782 -0.019181753 0.12759763
0.30637997 -0.020200592 0.12668681
0.30667144 -0.021225471 0.1257115
0.30691391 -0.022247078 0.1249001
0.30720782 -0.023279358 0.12391657
0.30756199 -0.02432465 0.12273127
0.30786321 -0.025365891 0.12172335
0.30818245 -0.026413938 0.12065506
0.30853003 -0.027470922 0.11949188
0.30885789 -0.028528744 0.11839473
0.30915993 -0.029585902 0.11738396
0.30947965 -0.030650258 0.11631405
0.30978242 -0.031715278 0.11530095
0.31045783 -0.032860436 0.11304063
0.33727399 0.021963509 0.019156158
0.33334893 0.020340845 0.032377899
0.33045107 0.018875392 0.04213953
0.3279905 0.017489647 0.050428092
0.32565618 0.016146705 0.058291554
0.3235622 0.014853932 0.065345168
0.32156676 0.013595517 0.072066844
0.3197791 0.012377548 0.07808876
0.31803817 0.011185355 0.083953142
0.31634253 0.010017963 0.089665055
0.31468934 0.0088743567 0.095233977
0.31298 0.0077490439 0.1009919
0.31131285 0.0066471407 0.10660779
0.30964056 0.0055661956 0.11224103
0.30805659 0.0045089731 0.11757672
0.30650258 0.0034724984 0.12281156
0.30469415 0.0024516946 0.12890339
0.30316302 0.0014564571 0.13406104
0.30142093 0.0004799637 0.13992941
0.30102009 -0.00047869323 0.14127958
0.3011128 -0.0014369612 0.14096731
0.30135208 -0.0023987275 0.14016134
0.30165082 -0.0033648475 0.13915491
0.30193132 -0.0043342342 0.13821006
0.30220944 -0.0053070947 0.13727319
0.30247915 -0.0062831338 0.13636476
0.30273628 -0.0072619952 0.13549852
0.30299428 -0.0082441643 0.13462943
0.30325809 -0.0092299543 0.13374072
0.30353117 -0.010219706 0.13282084
0.30380616 -0.011213059 0.13189453
0.30408588 -0.012210272 0.1309523
0.30437961 -0.013212234 0.12996286
0.30462784 -0.014213733 0.12912673
0.30489537 -0.015220281 0.12822551
0.30517146 -0.016231112 0.12729549
0.30546585 -0.017247476 0.12630385
0.30570376 -0.018260948 0.12550241
0.30595481 -0.019279063 0.12465668
0.30627877 -0.020309834 0.12356544
0.30660945 -0.021345627 0.12245154
0.30688632 -0.02237794 0.12151891
0.30719721 -0.023418831 0.1204716
0.30754441 -0.024469305 0.11930197
0.30783069 -0.025514331 0.11833763
0.30818695 -0.026574738 0.11713767
0.30849528 -0.027631318 0.11609894
0.3088094 -0.028692842 0.1150409
0.30912387 -0.029758422 0.11398149
0.30943656 -0.03082764 0.11292827
0.3097778 -0.031906523 0.11177874
0.31081372 -0.033132866 0.10828918
0.33322555 0.020451071 0.028687358
0.33015621 0.018959424 0.039095402
0.32767838 0.017565411 0.047497571
0.32533211 0.016215164 0.055453897
0.32322019 0.014915034 0.062615275
0.3212921 0.013656496 0.069153368
0.31936094 0.01242233 0.075701833
0.3176282 0.011226085 0.081577599
0.31592366 0.010053653 0.087357521
0.31428003 0.0089062667 0.092931032
0.31259567 0.0077778972 0.098642707
0.31090474 0.0066707432 0.10437649
0.3092421 0.0055861496 0.1100145
0.30763897 0.004524474 0.11545068
0.30606183 0.0034838284 0.12079871
0.30441415 0.0024621759 0.12638599
0.30268914 0.0014608018 0.13223553
0.30128375 0.00048245216 0.1370011
0.3008489 -0.00048106539 0.13847566
0.30099624 -0.0014446056 0.13797611
0.30127817 -0.0024121718 0.13701999
0.30155748 -0.0033832754 0.13607293
0.30183434 -0.0043578721 0.13513404
0.30210662 -0.0053358399 0.13421077
0.30236405 -0.0063166656 0.13333774
0.30262685 -0.0073010316 0.13244659
0.30289724 -0.0082891602 0.13152975
0.30323324 -0.0092847142 0.13039047
0.3035067 -0.010280366 0.12946314
0.30375749 -0.011277845 0.1286127
0.3040036 -0.012278148 0.12777817
0.30427861 -0.013284081 0.12684548
0.30454111 -0.014292361 0.12595552
0.30478087 -0.015301744 0.12514251
0.3050558 -0.016317889 0.12421012
0.30538559 -0.017343659 0.12309194
0.30566168 -0.018367307 0.12215555
0.30593508 -0.019394137 0.12122846
0.30629402 -0.020435637 0.12001139
0.30661333 -0.021476282 0.11892873
0.3069185 -0.022518978 0.11789376
0.30721959 -0.023564948 0.11687285
0.30755681 -0.02462041 0.11572927
0.30786037 -0.025674695 0.1146999
0.30818367 -0.026736187 0.11360371
0.30850649 -0.02780172 0.11250907
0.30876577 -0.028859826 0.11162972
0.30912077 -0.029939244 0.11042601
0.30942822 -0.031013941 0.10938346
0.30982101 -0.032109715 0.10805148
0.31145465 -0.033467706 0.10251176
0.33323663 0.020577749 0.024492979
0.32987291 0.019045714 0.035975516
0.3273637 0.017641844 0.044541121
0.32503229 0.016286725 0.052499712
0.32285804 0.014975141 0.05992192
0.32085317 0.013705049 0.066765845
0.31894097 0.012467528 0.073293447
0.31722611 0.011267846 0.079147398
0.31551695 0.010090522 0.084981859
0.31385934 0.0089379447 0.090640426
0.31221148 0.0078071123 0.096265554
0.31051299 0.0066953166 0.10206366
0.30888027 0.0056076408 0.10763723
0.30722868 0.0045403773 0.11327505
0.30565214 0.003495994 0.11865699
0.30403709 0.0024712281 0.12417018
0.30231133 0.0014661252 0.13006127
0.30102691 0.00048458716 0.13444591
0.30073023 -0.00048363514 0.13545877
0.30087912 -0.0014523389 0.1349504
0.30115277 -0.0024249551 0.13401622
0.30143419 -0.0034012578 0.13305551
0.30171821 -0.0043812469 0.1320861
0.30204439 -0.005366371 0.13097256
0.30231458 -0.0063533448 0.13005018
0.30255669 -0.007342435 0.1292237
0.3028273 -0.0083361864 0.12829995
0.30310547 -0.0093338713 0.12735045
0.30334085 -0.010332247 0.12654686
0.30358493 -0.011334282 0.12571371
0.30387384 -0.012343048 0.12472737
0.30416843 -0.013356013 0.12372172
0.30446309 -0.014372765 0.12271589
0.30473182 -0.015390718 0.12179857
0.3050265 -0.01641487 0.12079269
0.30536315 -0.017447518 0.11964339
0.30564591 -0.018478086 0.11867821
0.30592477 -0.019511798 0.11772627
0.30623478 -0.020553183 0.11666805
0.30654621 -0.021598751 0.11560482
0.30688664 -0.022652496 0.11444277
0.30719915 -0.023706401 0.11337596
0.30751544 -0.024764914 0.11229622
0.30783725 -0.02582838 0.11119783
0.30816114 -0.026896344 0.11009198
0.30845851 -0.027963776 0.10907692
0.3087543 -0.029034737 0.10806727
0.3090924 -0.03011751 0.10691303
0.30940589 -0.031199796 0.10584289
0.30995703 -0.032334149 0.10396153
0.33337927 0.020720858 0.019794643
0.32971662 0.019146599 0.032381833
0.32706177 0.0177205 0.041505456
0.32474762 0.016360583 0.049458325
0.32251406 0.015037575 0.057134151
0.32046533 0.013758324 0.06417501
0.3185769 0.012517436 0.070664763
0.31681588 0.011309572 0.076716721
0.31510758 0.010127684 0.082587481
0.3134672 0.0089715831 0.088224828
0.31182206 0.0078364331 0.093878627
0.3101311 0.0067206081 0.099689722
0.3084833 0.00562815 0.10535264
0.30686209 0.0045577451 0.11092412
0.30525318 0.0035085529 0.11645335
0.30360866 0.002479563 0.122105
0.30185759 0.0014707783 0.12812287
0.30083463 0.00048695691 0.13163829
0.30056158 -0.00048607541 0.13257664
0.30078694 -0.001460409 0.13180208
0.30112725 -0.0024395082 0.13063258
0.30144382 -0.0034224656 0.12954473
0.30167168 -0.0044069332 0.12876171
0.30193475 -0.0053955945 0.12785757
0.30218643 -0.0063871751 0.12699258
0.30240908 -0.0073805992 0.12622744
0.30263942 -0.0083773211 0.12543583
0.30299219 -0.0093845269 0.12422347
0.30326962 -0.01039118 0.12327009
0.30353105 -0.011400228 0.12237167
0.30380201 -0.012413421 0.12144053
0.30411834 -0.013434069 0.12035334
0.30442417 -0.014457817 0.11930245
0.30469102 -0.015481617 0.11838526
0.30501211 -0.016514637 0.11728185
0.30531061 -0.017549252 0.11625606
0.30561405 -0.018588316 0.11521316
0.30592516 -0.019632259 0.11414403
0.30622649 -0.020678926 0.11310846
0.3065373 -0.021730803 0.11204034
0.3068496 -0.022786912 0.11096704
0.30716145 -0.02384698 0.10989535
0.30748221 -0.024912488 0.10879296
0.30783546 -0.025987487 0.10757899
0.30816972 -0.027063796 0.10643029
0.30850658 -0.028144885 0.10527265
0.30885553 -0.029232547 0.10407352
0.30910322 -0.030305432 0.10322219
0.3094067 -0.031392496 0.10217935
0.31034815 -0.032613251 0.09894377
0.33397669 0.020917453 0.013463914
0.32962903 0.019256104 0.028506279
0.32675463 0.017799607 0.038451314
0.32442069 0.016431376 0.046526432
0.32220486 0.015103832 0.054192901
0.32013071 0.013816586 0.061369181
0.31823134 0.012569347 0.067940772
0.31641394 0.011352383 0.074228704
0.31470802 0.010165911 0.080131054
0.31306797 0.0090052458 0.085805416
0.31141749 0.0078653824 0.091515839
0.30975187 0.0067463238 0.097278774
0.30810148 0.0056494549 0.1029889
0.30648762 0.0045750989 0.10857254
0.30484316 0.0035210163 0.11426216
0.3031888 0.0024881409 0.11998612
0.30160704 0.0014774697 0.12545884
0.30059087 0.00048918882 0.12897468
0.30046719 -0.00048878713 0.12940258
0.30072698 -0.0014688931 0.12850374
0.30100715 -0.0024527055 0.12753439
0.30125731 -0.0034394765 0.12666887
0.30146274 -0.0044281902 0.12595809
0.30175483 -0.0054226695 0.12494755
0.30211815 -0.0064239535 0.12369037
0.30235988 -0.0074240328 0.12285399
0.30260491 -0.0084274346 0.1220063
0.3029201 -0.0094383527 0.12091571
0.30320942 -0.010451599 0.11991477
0.30349842 -0.011468581 0.1189149
0.30380404 -0.012490668 0.11785752
0.30407393 -0.013513594 0.11692363
0.30437514 -0.014542978 0.1158815
0.30467379 -0.015576017 0.1148482
0.30496961 -0.016612632 0.11382473
0.30527049 -0.017653665 0.11278379
0.30556399 -0.018697724 0.11176831
0.30585438 -0.019745201 0.11076355
0.30616617 -0.020799302 0.10968482
0.30647996 -0.021857737 0.10859907
0.30682763 -0.022925198 0.10739619
0.30711287 -0.023987643 0.10640931
0.30748117 -0.02506702 0.10513502
0.30771452 -0.026128821 0.10432768
0.30800852 -0.027204098 0.10331047
0.30834919 -0.028291535 0.10213178
0.30874768 -0.029394101 0.10075313
0.30906576 -0.030486435 0.099652588
0.30946386 -0.031598758 0.098275244
0.31087598 -0.032923784 0.093389452
0.32955512 0.019368453 0.024534941
0.32646346 0.017881323 0.035304546
0.32409263 0.016502947 0.043563187
0.32188046 0.015169576 0.051269054
0.31978104 0.013874341 0.058582187
0.31784517 0.012618851 0.065325677
0.31604043 0.011397676 0.071612298
0.31432426 0.010205599 0.077590346
0.31267115 0.0090394635 0.08334887
0.31101876 0.0078949779 0.089104831
0.30937696 0.006772548 0.094823837
0.30772093 0.0056710723 0.10059249
0.30609128 0.0045920261 0.1062693
0.30447999 0.0035347072 0.11188209
0.30278763 0.0024971312 0.11777723
0.30117244 0.0014824399 0.12340355
0.30040359 0.00049163337 0.12608182
0.30030459 -0.00049130974 0.12642676
0.3005724 -0.0014765555 0.12549382
0.30086654 -0.0024657333 0.12446922
0.30118215 -0.0034592487 0.12336981
0.30145416 -0.0044556069 0.12242234
0.3017475 -0.0054562897 0.12140042
0.3020407 -0.0064608022 0.12037909
0.30231935 -0.0074684331 0.11940855
0.30259579 -0.0084795877 0.11844546
0.30289209 -0.0094955862 0.1174134
0.30315852 -0.01051341 0.1164853
0.30344871 -0.011536505 0.11547446
0.30373871 -0.012563377 0.11446428
0.30403042 -0.013594193 0.11344808
0.30432206 -0.014628817 0.11243212
0.30461481 -0.015667366 0.11141241
0.3049069 -0.016709669 0.11039501
0.30519828 -0.017755713 0.10938001
0.3055135 -0.018808451 0.10828191
0.30584744 -0.019867692 0.10711873
0.3060987 -0.020920226 0.10624337
0.30641815 -0.021985624 0.10513061
0.30666441 -0.023044433 0.10427284
0.30697525 -0.024116384 0.10319012
0.30732307 -0.025198324 0.10197848
0.30774814 -0.026297692 0.10049772
0.30805779 -0.027382616 0.099419117
0.30836704 -0.02847152 0.098341823
0.30872658 -0.029573837 0.097089469
0.30906183 -0.030676171 0.095921636
0.3097249 -0.031848252 0.093611956
0.32958263 0.019493224 0.02015835
0.32629114 0.017976185 0.031702459
0.32375243 0.016574264 0.04060638
0.32156581 0.015237013 0.048275411
0.31943834 0.013933397 0.055737019
0.31748074 0.012670627 0.062602699
0.31566748 0.01144358 0.068962336
0.31393582 0.010245492 0.075035691
0.3122834 0.0090746181 0.08083117
0.31063735 0.007925801 0.086604238
0.30898094 0.0067981975 0.092413723
0.30733782 0.0056928685 0.098176539
0.30571166 0.0046096607 0.10387993
0.30410457 0.003548288 0.10951644
0.30240691 0.0025065707 0.11547059
0.30084762 0.0014885556 0.12093937
0.30028957 0.00049434952 0.12289661
0.30025053 -0.00049422123 0.1230334
0.30048925 -0.001485019 0.12219626
0.30078274 -0.0024798594 0.12116677
0.3011201 -0.0034795706 0.11998361
0.30136287 -0.0044809207 0.11913216
0.3016687 -0.0054877466 0.11805952
0.30193323 -0.0064968304 0.11713171
0.30222648 -0.0075108111 0.11610329
0.30252814 -0.0085291211 0.11504525
0.30281669 -0.0095505798 0.11403334
0.30310205 -0.010575615 0.11303252
0.30339581 -0.011605042 0.11200207
0.3036738 -0.012637037 0.11102712
0.30393451 -0.013671154 0.11011273
0.30423486 -0.014712482 0.10905933
0.30462271 -0.015766684 0.10769904
0.30485678 -0.016809296 0.10687816
0.30513781 -0.017860392 0.1058926
0.30541265 -0.018914441 0.10492855
0.30572408 -0.019976793 0.1038363
0.30599934 -0.021038363 0.102871
0.3063435 -0.022113305 0.10166383
0.30669409 -0.023193724 0.10043424
0.30701426 -0.024274055 0.099311352
0.30735266 -0.025361532 0.098124504
0.30770928 -0.02645652 0.09687382
0.30802947 -0.027549852 0.095750809
0.30838227 -0.028653294 0.094513416
0.30874401 -0.029763062 0.093244612
0.30906799 -0.030870249 0.092108369
0.31003714 -0.032111153 0.088709414
0.32996809 0.019658672 0.014462173
0.32617092 0.018077591 0.027871549
0.32349044 0.016653985 0.037337422
0.32124451 0.01530471 0.045268595
0.31913942 0.013996824 0.052702487
0.31713307 0.012724328 0.05978781
0.31530544 0.011490822 0.066241801
0.31356269 0.010286853 0.0723961
0.31189561 0.0091102179 0.078283131
0.31025702 0.0079570673 0.084069669
0.30857611 0.0068237931 0.090005577
0.30695385 0.0057149087 0.095734596
0.30533728 0.0046276753 0.10144329
0.30371499 0.0035617133 0.10717219
0.30203271 0.0025162383 0.11311293
0.30060071 0.0014955227 0.1181699
0.30013096 0.00049695256 0.11982882
0.30013916 -0.00049697969 0.11979985
0.30041838 -0.0014937118 0.11881381
0.30074394 -0.0024949079 0.11766416
0.30111086 -0.0035013731 0.11636847
0.30132711 -0.0045082085 0.11560464
0.3016125 -0.0055204229 0.11459696
0.30189419 -0.0065362589 0.1136021
0.30217502 -0.0075557791 0.11261052
0.30245954 -0.0085792281 0.1116057
0.30273962 -0.009606163 0.11061668
0.30302352 -0.010637072 0.10961413
0.30333313 -0.011673701 0.10852063
0.30364245 -0.012714404 0.10742825
0.30382091 -0.013747502 0.10679817
0.30415159 -0.01479758 0.10563034
0.30441958 -0.015845601 0.10468411
0.30469808 -0.016898321 0.10370052
0.30500376 -0.017957874 0.10262108
0.3053655 -0.019028341 0.10134363
0.30566403 -0.020095443 0.10028934
0.30597168 -0.021167731 0.099202931
0.30629164 -0.022245845 0.098073006
0.30665478 -0.023334628 0.096790612
0.30698803 -0.024423566 0.095613837
0.30732909 -0.025518185 0.094409406
0.30770218 -0.026622728 0.093091846
0.30799878 -0.027718794 0.092044413
0.30835909 -0.028830381 0.090772033
0.30869192 -0.029941555 0.089596689
0.3091597 -0.031083491 0.087944806
0.31041446 -0.032390531 0.083513737
0.3259691 0.018171864 0.024282455
0.32317549 0.016729612 0.034215987
0.32091126 0.015372195 0.042267203
0.31882328 0.014059626 0.049691737
0.31679916 0.012779773 0.056889117
0.31492046 0.011537062 0.063569605
0.31317484 0.01032781 0.069776654
0.31151325 0.0091465749 0.075685084
0.30987063 0.0079884287 0.081525981
0.30820918 0.0068513551 0.087433755
0.30655181 0.0057365689 0.093327105
0.30496681 0.0046460363 0.098963141
0.30334404 0.0035757434 0.10473341
0.30172932 0.0025272076 0.11047512
0.30036712 0.0015027113 0.11531889
0.29996264 0.00049955631 0.11675721
0.30007082 -0.00049991679 0.11637241
0.30037034 -0.0015027436 0.11530739
0.30072123 -0.002510417 0.11405969
0.30103925 -0.0035219996 0.11292887
0.301256 -0.0045347838 0.11215812
0.30154592 -0.0055531366 0.11112726
0.30183521 -0.006575325 0.11009866
0.30211928 -0.0076011089 0.10908848
0.30245721 -0.0086337281 0.10788679
0.30267552 -0.0096632764 0.10711062
0.30297691 -0.010701546 0.10603893
0.30326152 -0.011742551 0.10502678
0.3035143 -0.012784691 0.10412812
