# .PCD v0.7 - Point Cloud Data file format
VERSION 0.7
FIELDS x y z
SIZE 4 4 4
TYPE F F F
COUNT 1 1 1
WIDTH 1359
HEIGHT 1
VIEWPOINT 0 0 0 1 0 0 0
POINTS 1359
DATA ascii
0.30445504 -0.019970093 0.040601403
0.30674386 -0.019797802 0.040785111
0.3052164 -0.016489912 0.040366523
0.30621448 -0.017974913 0.041389346
0.30463141 -0.013591769 0.040722225
0.30181158 -0.01122655 0.03930372
0.30410111 -0.010425938 0.040576831
0.30231977 -0.0070836912 0.041299298
0.3032321 -0.0072664954 0.039900199
0.29974309 -0.0039841719 0.041276336
0.30229688 -0.0041788355 0.040840596
0.2989738 -0.0017529204 0.039744198
0.30159086 -0.0017918751 0.040547948
0.2978754 0.0018903427 0.04126054
0.30073285 0.0010869578 0.040546171
0.29930916 0.004324324 0.040379774
0.30011076 0.0030102059 0.041065782
0.29849148 0.0080390591 0.040048748
0.30140474 0.0068184352 0.040455494
0.30464131 0.0082048643 0.04093717
0.30191684 0.0095317103 0.040949404
0.30499524 0.010958198 0.04028517
0.30748296 0.010367322 0.04067215
0.31051722 0.010693011 0.041206002
0.31331775 0.011920482 0.040541548
0.31046999 0.013340764 0.039570928
0.31284755 0.014300678 0.039608181
0.31608742 0.013032545 0.040415145
0.31938881 0.014254608 0.041155234
0.31645188 0.015730275 0.039466292
0.32077691 0.017231952 0.041922748
0.32293233 0.015628451 0.0404207
0.32554778 0.016553193 0.040535618
0.32815081 0.017466825 0.0402091
0.32324469 0.01816361 0.041466534
0.32576588 0.019082565 0.040747762
0.32832602 0.019995481 0.039862216
0.3311356 0.019030904 0.040721327
0.33399272 0.019302772 0.040896669
0.33699337 0.020211993 0.040988874
0.33421731 0.021863978 0.040317953
0.33754569 0.022809558 0.041581988
0.34001583 0.021637436 0.040630348
0.34300753 0.022020694 0.040372916
0.34649047 0.02292564 0.041130144
0.34975198 0.023820862 0.040697217
0.34370089 0.024619317 0.040803909
0.34714711 0.02553652 0.041500926
0.35040677 0.026411384 0.040353537
0.35344431 0.024709215 0.041068029
0.35669103 0.025587309 0.039247811
0.35713899 0.025586648 0.04073149
0.36115751 0.026452353 0.040642571
0.35372445 0.027283022 0.039028347
0.3543393 0.0273096 0.041550457
0.35807484 0.028174257 0.041016102
0.36195356 0.029019024 0.039933264
0.36544743 0.027295962 0.040077083
0.3670069 0.029844468 0.04142493
0.37060782 0.028103655 0.040556729
0.37621224 0.028876681 0.040412188
0.38276726 0.029599663 0.04077974
0.37195501 0.030633474 0.040953249
0.37749556 0.031386781 0.040584505
0.30854613 -0.027882904 0.043283574
0.30991578 -0.029140392 0.044282693
0.30795115 -0.02566557 0.043657314
0.30497152 -0.021358661 0.044093311
0.30739409 -0.022331532 0.043424226
0.3064954 -0.019180888 0.043092806
0.30477819 -0.016194642 0.043289889
0.30603334 -0.017711952 0.044118524
0.30483994 -0.013514792 0.043992687
0.30223361 -0.011977293 0.043852806
0.30404419 -0.010646763 0.043449689
0.30181253 -0.0068005128 0.044166721
0.30337361 -0.008237957 0.043489009
0.30221233 -0.0041797268 0.04338403
0.29901445 -0.0014432203 0.043638587
0.30137461 -0.0013180133 0.043522134
0.30056152 0.0014367072 0.043605208
0.29947874 0.0049317516 0.043607008
0.30004892 0.0031685941 0.04359588
0.29683399 0.0060709324 0.04270035
0.29810742 0.0076670647 0.04259789
0.30085313 0.006984842 0.043323264
0.30404225 0.0077236639 0.043543886
0.30631009 0.0087334681 0.043230951
0.30266479 0.009643957 0.043724239
0.30495691 0.010623965 0.044181585
0.30745792 0.0098087313 0.043984026
0.31078514 0.010597921 0.043638784
0.31399012 0.011975054 0.043032184
0.31038195 0.013002094 0.043606192
0.31392545 0.013198601 0.043320149
0.31649974 0.012920874 0.043848503
0.31942821 0.014073397 0.043665595
0.32126522 0.014763864 0.04365468
0.31593573 0.015346903 0.042376637
0.31869307 0.016331749 0.043551326
0.32314467 0.016083244 0.043603778
0.32633969 0.01659376 0.043359499
0.32902202 0.017509196 0.043366272
0.32395321 0.018225908 0.044001043
0.32645559 0.019145049 0.043348968
0.32901466 0.020052373 0.042432725
0.33177492 0.018419605 0.043269396
0.33460796 0.019324426 0.043055315
0.33784571 0.02024032 0.044050615
0.3322573 0.021017484 0.044086397
0.3348946 0.021911122 0.042837024
0.33819211 0.022857934 0.044184089
0.34077218 0.021143436 0.043721229
0.34385839 0.022043532 0.043521125
0.3473464 0.022940703 0.044160426
0.3505621 0.023827916 0.043431014
0.34433138 0.024659576 0.043389261
0.34780335 0.025564607 0.043902576
0.35134119 0.026456317 0.044124007
0.35432482 0.024713093 0.044042926
0.3578119 0.025585216 0.042940915
0.36200178 0.02644462 0.043301821
0.35496992 0.027331928 0.043964863
0.35872918 0.028186861 0.043283463
0.36261994 0.029024817 0.042114377
0.36327952 0.029031044 0.044292808
0.36692715 0.027788114 0.043778844
0.37159327 0.028081015 0.04334119
0.37737229 0.028837934 0.043193504
0.37302443 0.030616388 0.043765187
0.37857065 0.031362873 0.043303102
0.3089053 -0.027671605 0.046284456
0.30971912 -0.029133841 0.047741175
0.30837914 -0.025839265 0.046482518
0.3056078 -0.023444802 0.046428263
0.30751905 -0.022905225 0.046174884
0.30452955 -0.019782312 0.047675669
0.30656829 -0.019737482 0.046181042
0.30556637 -0.01634183 0.046235569
0.30423969 -0.013584144 0.046872586
0.30178109 -0.010438189 0.047623932
0.30391884 -0.010644624 0.046513163
0.30279866 -0.0067168921 0.046711102
0.30331618 -0.0085000973 0.046122804
0.30183411 -0.0046850853 0.046367601
0.30126873 -0.0012420933 0.046612121
0.2982474 0.0011035763 0.046315968
0.30041739 0.0017768918 0.046587378
0.29985663 0.0039157108 0.046426475
0.30006114 0.0055603571 0.04624331
0.29811054 0.0073571168 0.046474308
0.30149445 0.0070115235 0.046423141
0.30470353 0.0077542379 0.046677094
0.30618152 0.0083762445 0.046947122
0.30454946 0.01024262 0.046694577
0.30814898 0.0098885568 0.046660945
0.31087685 0.010430962 0.046172217
0.31291997 0.011280552 0.046240866
0.31109881 0.013097871 0.046334177
0.31425747 0.013538104 0.046219349
0.31638545 0.012621626 0.047017813
0.31958246 0.013898062 0.046528995
0.32189259 0.014805895 0.045988221
0.31698793 0.015472755 0.046420485
0.31974339 0.016446482 0.047505379
0.32217169 0.017374553 0.047153652
0.32507741 0.015949059 0.045958757
0.32840234 0.017089332 0.04599458
0.33000144 0.017558482 0.046960652
0.32464263 0.018292431 0.046594739
0.32841486 0.019659238 0.045479864
0.33187801 0.01870833 0.046549559
0.33538273 0.019354628 0.045861792
0.33861241 0.020267379 0.046854239
0.33293438 0.021068305 0.046591997
0.33553767 0.021966007 0.045487225
0.3375538 0.022450015 0.047195345
0.34161675 0.021819197 0.046320826
0.34404537 0.022499047 0.046585307
0.3481721 0.022948757 0.046844661
0.35146725 0.023832358 0.046350796
0.34498999 0.024691788 0.045799494
0.34843823 0.025596261 0.04636544
0.35197204 0.026483025 0.046550214
0.35514593 0.024714435 0.046722174
0.35889301 0.025580483 0.046381935
0.36274078 0.026436482 0.045563832
0.36309716 0.02643184 0.046620131
0.35561377 0.027350597 0.046285212
0.35939047 0.028197281 0.045488417
0.36002073 0.028212657 0.047793031
0.36393681 0.029036913 0.046450078
0.36796093 0.027901854 0.046651855
0.37260038 0.028055765 0.046067566
0.37864336 0.028796561 0.046308443
0.37406999 0.030601725 0.046609044
0.38021421 0.031298958 0.046071649
0.31044555 -0.030017789 0.050944149
0.30892316 -0.027737916 0.049337327
0.30932179 -0.028654715 0.050049704
0.30800936 -0.025629355 0.04956599
0.30552444 -0.021608043 0.050828017
0.30736774 -0.022588851 0.049277633
0.30634889 -0.019301709 0.049427669
0.30501831 -0.016496735 0.049350075
0.30475888 -0.013874535 0.049023621
0.3037577 -0.010415437 0.04917787
0.30239433 -0.0069835298 0.049650416
0.3031334 -0.0081644095 0.049040537
0.30207434 -0.0043835407 0.049273044
0.29889613 -0.0010329373 0.048647404
0.3012996 -0.0015956449 0.049722414
0.30054122 0.0012391234 0.04933184
0.29696453 0.0059895143 0.049879909
0.29916137 0.0039219544 0.049410194
0.3007271 0.0057748142 0.048948124
0.29884705 0.0074888039 0.049346924
0.30188316 0.0075444309 0.049800113
0.30472788 0.007531587 0.049524426
0.30666769 0.0083742356 0.049543515
0.30428928 0.0092819836 0.049283043
0.30816633 0.01033288 0.049262352
0.31055999 0.010053038 0.049303442
0.31337959 0.011207591 0.049529031
0.31100684 0.01276109 0.050275862
0.31332484 0.013713963 0.05044961
0.31609422 0.012816543 0.049689997
0.31928855 0.013573867 0.04928875
0.32244405 0.014753105 0.049274854
0.31923294 0.016059658 0.050266802
0.32286263 0.017444491 0.04973042
0.32530156 0.015774915 0.049220007
0.32798624 0.016687216 0.049469814
0.33068115 0.017592115 0.049439557
0.32532975 0.018357467 0.049152434
0.32816684 0.019295875 0.049708217
0.33104378 0.020222425 0.050062776
0.33338508 0.018491259 0.049134929
0.33622661 0.019386763 0.048895568
0.33949262 0.020292956 0.049900495
0.33362189 0.021114323 0.049000025
0.33688194 0.022054594 0.050360143
0.33953208 0.022937525 0.049025476
0.34253526 0.021852888 0.049598485
0.34552494 0.022075122 0.049229205
0.34896994 0.022959536 0.049548816
0.35235575 0.023838041 0.049268827
0.3459608 0.024741512 0.049418271
0.34909031 0.025622867 0.048711181
0.35262364 0.026504286 0.048847497
0.35598037 0.024713665 0.049355756
0.35974759 0.025576068 0.049071848
0.36032531 0.025571935 0.050838947
0.36410797 0.026416961 0.049534291
0.35657656 0.027377237 0.049710661
0.36492407 0.029043984 0.049621165
0.36840546 0.02724262 0.048652187
0.36944529 0.028529929 0.050088204
0.37384304 0.028020559 0.049202338
0.38011757 0.028743606 0.049612917
0.37510902 0.030587014 0.049429119
0.30882528 -0.027467251 0.051845551
0.30934545 -0.028752662 0.053625226
0.30825126 -0.025554493 0.053380921
0.3071768 -0.022889214 0.052351732
0.3049309 -0.018128138 0.051896036
0.30634189 -0.019416163 0.052660089
0.30549777 -0.016667664 0.052669294
0.30224651 -0.012406178 0.05115664
0.3046757 -0.013821562 0.052195102
0.30387014 -0.011055924 0.052144289
0.30231974 -0.0073903557 0.052507177
0.30323505 -0.0087981243 0.053035893
0.29946202 -0.0031017661 0.051531434
0.3019655 -0.0040907566 0.052568667
0.30124962 -0.0013995916 0.052555583
0.29833645 0.00051028654 0.053313494
0.30054405 0.0011627108 0.052493095
0.29992744 0.0040906579 0.052570682
0.30092245 0.005357658 0.052746858
0.29880881 0.0072013177 0.053396344
0.30107343 0.0081612095 0.05378437
0.30428913 0.0071047912 0.052596353
0.30759293 0.0085350908 0.052488744
0.30372751 0.0094975866 0.051775336
0.30713069 0.010946251 0.052404642
0.31048563 0.010098021 0.05241989
0.31347254 0.010986246 0.052855581
0.31170508 0.012860782 0.053005815
0.31401327 0.01381005 0.053183377
0.3164202 0.012712223 0.052828092
0.31971014 0.013546277 0.051657565
0.32283136 0.014624449 0.052615147
0.31872502 0.015675943 0.053007662
0.32233733 0.017055279 0.052489728
0.32619655 0.015826087 0.052439302
0.32893008 0.016733501 0.052781183
0.33164421 0.017630955 0.052710671
0.32601038 0.018422462 0.051698387
0.32918018 0.019384872 0.053466797
0.33171272 0.020277489 0.052554905
0.33431584 0.018523792 0.052271441
0.33708304 0.019416135 0.051877424
0.34040913 0.020318523 0.053039089
0.33428413 0.021165866 0.051495552
0.33752638 0.022103973 0.052872598
0.34050184 0.023002183 0.052717716
0.34328854 0.02187614 0.052231081
0.34645975 0.022089889 0.052328199
0.34995085 0.022969244 0.052743025
0.35331291 0.023841728 0.052316703
0.3469373 0.02478735 0.052935123
0.35006988 0.025660152 0.052151442
0.35359603 0.02653512 0.052246481
0.35672057 0.024710355 0.051582471
0.35730541 0.024707407 0.053327858
0.36088309 0.025565768 0.052448053
0.36522427 0.026396165 0.052543044
0.35754606 0.027400661 0.053040683
0.36099041 0.028229455 0.051082879
0.36623177 0.029052516 0.053787827
0.37026444 0.027859911 0.052912422
0.37483507 0.027991299 0.051639959
0.37565389 0.027965132 0.053537622
0.38097063 0.028712101 0.051471472
0.38186339 0.028676575 0.05325824
0.37579957 0.030576861 0.051285446
0.30873662 -0.027201191 0.054320157
0.30940655 -0.028834589 0.055590283
0.3079547 -0.025764873 0.055880804
0.30719599 -0.022292249 0.055363536
0.30449286 -0.020101801 0.055066705
0.30639499 -0.019717623 0.055009913
0.30537379 -0.016477156 0.055610187
0.30420288 -0.013496349 0.055408247
0.30155531 -0.010696732 0.056539953
0.3035455 -0.010168047 0.055832136
0.30265328 -0.0067825974 0.055335511
0.30316243 -0.0086295605 0.055107415
0.29994524 -0.0050985254 0.05494839
0.30204201 -0.0044746213 0.055350542
0.29887435 -0.0015314333 0.056343019
0.30128258 -0.001609073 0.055646576
0.30038634 0.0017499315 0.055683602
0.29858047 0.0042924676 0.055543467
0.30128592 0.0054404554 0.055845745
0.29848349 0.006808633 0.055452913
0.30179217 0.0082862601 0.056575716
0.30469611 0.0070326207 0.055577114
0.30770391 0.008323825 0.055690769
0.30444011 0.0096163135 0.054570198
0.30783132 0.011057775 0.055181384
0.31067544 0.0095502203 0.056165773
0.3134729 0.01080105 0.055170886
0.31560498 0.011598792 0.056107596
0.31009853 0.012015592 0.055546284
0.31354204 0.013434572 0.055834025
0.31729552 0.012918851 0.056138024
0.3193996 0.013158233 0.054957144
0.32198548 0.014072306 0.055498432
0.32446265 0.014972276 0.055407286
0.31939614 0.015761379 0.05568701
0.32179803 0.016674917 0.055320561
0.32571456 0.016293727 0.055330086
0.328823 0.016436674 0.055781044
0.33249927 0.017667463 0.055670191
0.32668215 0.018488199 0.054245472
0.32859218 0.019000662 0.056396514
0.33237344 0.02033313 0.055045843
0.33527765 0.018557156 0.055505227
0.33813265 0.019446986 0.055377908
0.34129024 0.020339133 0.055931628
0.33526582 0.021242997 0.055212557
0.33818871 0.022146907 0.055255055
0.34147587 0.023062743 0.056309223
0.34429857 0.022127902 0.055514485
0.34745359 0.022101482 0.055479527
0.35081843 0.022972571 0.055374041
0.3525452 0.023409216 0.055353135
0.3544991 0.02384479 0.056034967
0.34758613 0.024816759 0.055240929
0.35104394 0.025696397 0.055546641
0.35456961 0.026563684 0.055573463
0.35806376 0.024703378 0.055582359
0.36195672 0.025551662 0.055445567
0.36579037 0.026386857 0.05412811
0.36644784 0.026374871 0.055912744
0.3585116 0.027422585 0.056308001
0.3622672 0.028252073 0.055433154
0.36720806 0.029057935 0.056860566
0.37119427 0.027172197 0.055690996
0.37204874 0.029825496 0.056401193
0.37670919 0.027928952 0.055844873
0.38314542 0.028625689 0.055831905
0.37734133 0.030553833 0.055413932
0.31066352 -0.030487385 0.057319015
0.30899164 -0.027937226 0.058311582
0.30933723 -0.028867656 0.058717858
0.30577931 -0.024229161 0.059330702
0.30831131 -0.02565442 0.058724426
0.3055889 -0.022030327 0.057804048
0.30745134 -0.023019969 0.058223475
0.3049311 -0.018553004 0.058870494
0.30650499 -0.019980825 0.058284163
0.30506787 -0.016406219 0.058314245
0.30210704 -0.012707271 0.059346616
0.30443436 -0.013342569 0.05852247
0.30364957 -0.010765618 0.058538504
0.302311 -0.0071322308 0.058476388
0.30312943 -0.0089097209 0.058559954
0.29942852 -0.0035699904 0.059197605
0.30201679 -0.0046198079 0.058277737
0.29846808 -9.9692494e-05 0.059841156
0.30116248 -0.0014326408 0.0584644
0.2978617 0.0019809641 0.057352841
0.30038914 0.0017014672 0.058540575
0.30067298 0.0042937561 0.058707744
0.29806697 0.0064752474 0.058187127
0.30146778 0.0076362784 0.059088387
0.30441925 0.0066142557 0.059160031
0.30749431 0.0080213817 0.058299527
0.30929974 0.0087218648 0.059088498
0.30437809 0.0093127657 0.058485121
0.30739361 0.010693252 0.057777375
0.31148925 0.0096305469 0.059223969
0.31347016 0.010515916 0.058434248
0.31574547 0.011427377 0.058630574
0.31079412 0.012117635 0.058234394
0.31306881 0.013064548 0.058496594
0.31701055 0.013748039 0.058429699
0.31972066 0.012935795 0.058912624
0.32275558 0.014122278 0.058236063
0.32127503 0.016295074 0.058070123
0.32529554 0.016085124 0.058446873
0.32793728 0.015913744 0.058401663
0.33052835 0.016802575 0.058144599
0.33330682 0.017696561 0.058318079
0.32802802 0.018612526 0.05918926
0.33050761 0.019503616 0.058439076
0.3341721 0.019799571 0.058187705
0.33626193 0.018583011 0.058577687
0.33994943 0.019696426 0.058850206
0.3422749 0.020362113 0.059162542
0.33625653 0.021314155 0.058800578
0.33917084 0.022211239 0.058805317
0.34398612 0.021855807 0.057997804
0.34604108 0.022145616 0.058661729
0.34866723 0.022112532 0.059219431
0.35181725 0.022980811 0.058565795
0.35532129 0.023849137 0.058699615
0.34855548 0.024859356 0.058646262
0.35201466 0.02573066 0.058872193
0.35553965 0.026590535 0.058835208
0.3590177 0.024697676 0.05839191
0.36284348 0.025541913 0.058006003
0.36323535 0.025533792 0.058967531
0.36764282 0.026346885 0.058858521
0.35951304 0.027435817 0.059363902
0.36329216 0.028254706 0.058346212
0.3678965 0.029054167 0.058724165
0.37253961 0.027670592 0.058576882
0.37779403 0.027889587 0.058093905
0.37823489 0.027873054 0.058977574
0.38391349 0.028596207 0.057436287
0.37855679 0.030532032 0.05849874
0.31016088 -0.0300822 0.060491651
0.30893487 -0.027681723 0.060684323
0.30917606 -0.028422508 0.061849996
0.30787858 -0.025358403 0.061444372
0.30719876 -0.022218663 0.061853386
0.30521977 -0.019370154 0.062202215
0.30636972 -0.019448262 0.06083975
0.30534595 -0.016144345 0.060891408
0.30425927 -0.013930384 0.06169311
0.30100644 -0.0091144741 0.060921669
0.3037526 -0.010788862 0.061214197
0.3028239 -0.0075879395 0.060966253
0.30310342 -0.0085094599 0.061294794
0.29998326 -0.005595617 0.061992884
0.30206379 -0.0046244231 0.061557382
0.29903477 -0.00214177 0.062564135
0.30115688 -0.0010717005 0.061358087
0.29813236 0.0012727231 0.06282568
0.30050951 0.0014433675 0.061135154
0.29732814 0.004046021 0.062100172
0.30088136 0.0044325064 0.061373532
0.29814136 0.0061371829 0.061364144
0.30097717 0.0075843707 0.061693132
0.30426213 0.006797642 0.06163111
0.30750299 0.0077414298 0.061622847
0.3100062 0.008795727 0.061754376
0.30542713 0.0094916224 0.062609196
0.30696672 0.010328259 0.060304761
0.30921304 0.011279058 0.060679674
0.31322849 0.010143079 0.061599243
0.31659934 0.011490646 0.061578054
0.3114647 0.01222752 0.061021805
0.31374124 0.013165623 0.061214566
0.31605858 0.014088262 0.061173558
0.31894222 0.012390093 0.061660588
0.32248124 0.0137281 0.061403867
0.31957591 0.01546173 0.060913682
0.32349777 0.016852697 0.061561167
0.3261534 0.015740452 0.061318718
0.32872277 0.0159525 0.061072141
0.33141294 0.016836736 0.061006397
0.3344107 0.017729089 0.061739344
0.32871181 0.01866813 0.061537683
0.33119154 0.01955387 0.060755432
0.33436635 0.020486031 0.062209845
0.33707643 0.018609568 0.061267845
0.34011436 0.019494651 0.061670125
0.34308347 0.020373546 0.061581772
0.33691704 0.021359406 0.061139286
0.34015739 0.022271391 0.062257528
0.34278774 0.023134917 0.060895562
0.34603456 0.021250026 0.061192106
0.34958375 0.022119129 0.06198293
0.35274187 0.022982916 0.06131671
0.3564764 0.023840576 0.06186837
0.34613955 0.024021085 0.061514199
0.34955579 0.024892639 0.061845183
0.35300195 0.025759265 0.062060058
0.35652733 0.026611887 0.061959147
0.3596594 0.024691483 0.060183764
0.36026025 0.024689632 0.062025905
0.36429927 0.025514275 0.061690114
0.36862791 0.026322795 0.061237991
0.36914697 0.026310436 0.062507749
0.36018243 0.027443206 0.06135577
0.36428031 0.028262237 0.061341196
0.36891738 0.029049315 0.06151697
0.37392631 0.027538838 0.061646655
0.37950233 0.027824163 0.061441191
0.37963614 0.030506359 0.060944468
0.31090713 -0.030958325 0.063532114
0.30883741 -0.02729791 0.064234376
0.30948183 -0.029062996 0.064018726
0.30586088 -0.024608314 0.065601885
0.3083497 -0.025785472 0.064373396
0.30550641 -0.022080818 0.064388759
0.30741528 -0.02291311 0.064343289
0.30587819 -0.01804512 0.064943314
0.30635664 -0.019630235 0.064286351
0.30496204 -0.016565144 0.064414665
0.30458614 -0.013702263 0.064318322
0.30157495 -0.011130862 0.063561976
0.30364409 -0.010379544 0.0642979
0.30229783 -0.0071777208 0.064158663
0.30311528 -0.0084607378 0.064274579
0.29951203 -0.0041084513 0.065864325
0.3021856 -0.0048672757 0.064653479
0.30133519 -0.0014185352 0.06456019
0.30053011 0.0014843675 0.063924029
0.2980625 0.0058917217 0.065595448
0.30127326 0.0045201182 0.064133227
0.30370748 0.0057932138 0.06595847
0.29946697 0.0067624152 0.06398803
0.30170244 0.0077020079 0.064313293
0.30426812 0.0068021528 0.064522088
0.30756277 0.0075244741 0.064460695
0.31069511 0.0088618239 0.064240701
0.30775073 0.010357373 0.06472405
0.31059319 0.011487056 0.065956295
0.3137351 0.010117044 0.064203575
0.31685081 0.011294033 0.0648496
0.3132872 0.012793342 0.063737273
0.31674638 0.014172725 0.063695788
0.3197225 0.012443356 0.064332105
0.32221001 0.013335552 0.064536542
0.3245976 0.014220752 0.064292438
0.31942374 0.01512263 0.06474933
0.3217904 0.0160228 0.064405471
0.32631439 0.016245201 0.064173393
0.32876649 0.015638536 0.064413711
0.33210456 0.016726518 0.064497776
0.3353934 0.017762108 0.064896263
0.32937098 0.01872969 0.063973427
0.33219802 0.019631606 0.064249218
0.33503973 0.020530932 0.064472198
0.3381581 0.018628914 0.064384855
0.34096208 0.019509155 0.064185448
0.34406415 0.020386688 0.064493515
0.33790994 0.021423534 0.064559966
0.34082183 0.022307791 0.064477742
0.34378541 0.023181923 0.064172745
0.346977 0.02125643 0.063901521
0.35047022 0.022118771 0.064420857
0.35301954 0.022766478 0.06450478
0.35750079 0.023833189 0.064686753
0.34712595 0.024062583 0.064765573
0.35018933 0.02492087 0.064082384
0.35364741 0.025779722 0.06419903
0.35718501 0.026625078 0.064005494
0.36117867 0.024676224 0.064400636
0.36533973 0.025502918 0.064698078
0.36975178 0.026295925 0.063982189
0.36082983 0.027454017 0.063410282
0.36563671 0.028262928 0.065092027
0.37030017 0.029037174 0.065077573
0.37482083 0.029788509 0.063493729
0.37546819 0.027586091 0.065068021
0.38079739 0.027772225 0.063846484
0.38140753 0.027747601 0.064971089
0.38069141 0.030483462 0.063438177
0.31038845 -0.030548152 0.066681325
0.30935258 -0.028799325 0.06735573
0.30807811 -0.025783649 0.067274295
0.30520594 -0.022131093 0.06729731
0.30726153 -0.02226856 0.067660861
0.30394703 -0.018818535 0.066223621
0.30624044 -0.019085322 0.067503758
0.30290487 -0.015282862 0.067396462
0.30541375 -0.016301652 0.067435957
0.30208832 -0.013092369 0.066529155
0.30452898 -0.013276909 0.067501865
0.30144113 -0.010657363 0.068264067
0.30385092 -0.01087915 0.067502536
0.3027831 -0.0069459416 0.066899158
0.30326554 -0.0087043196 0.067453295
0.30183771 -0.0044672997 0.067656837
0.29884967 -0.001689272 0.067771703
0.30141521 -0.0013548397 0.067584775
0.29802838 0.0016488954 0.067500889
0.30061141 0.0014643976 0.067255422
0.29781055 0.0047641508 0.068651125
0.30118409 0.004197963 0.06723617
0.30328357 0.0054282779 0.06833525
0.30130771 0.0073511042 0.066755682
0.30479315 0.0069782934 0.067979842
0.30730709 0.0071063437 0.067991473
0.31030598 0.0084284451 0.067180529
0.30682048 0.0097186491 0.067922413
0.31016326 0.011121105 0.068390906
0.31393033 0.0098477658 0.067929439
0.31596178 0.010721875 0.067238957
0.31842676 0.011626586 0.067897387
0.31319451 0.012463937 0.067411304
0.31605375 0.013609923 0.067423776
0.31995806 0.012958598 0.067560203
0.32306227 0.013388045 0.067412786
0.32569516 0.014276161 0.06782496
0.32045919 0.015231673 0.068326414
0.32282007 0.016124982 0.067956448
0.32554039 0.017046735 0.068667471
0.32815188 0.015704866 0.067685217
0.33093229 0.016032513 0.067853115
0.33412799 0.017122507 0.067241117
0.33641332 0.017783346 0.067816168
0.33039796 0.018806027 0.06734553
0.33462489 0.02015231 0.067745119
0.33802959 0.019304719 0.067365259
0.34092033 0.019236859 0.067024551
0.34304655 0.019823026 0.067531325
0.34527075 0.020402348 0.068059817
0.3403556 0.021924499 0.067850932
0.3434464 0.022806576 0.068191886
0.34774065 0.021269202 0.066347823
0.3483718 0.021267006 0.067948163
0.35161272 0.022125514 0.067814164
0.35491392 0.022979671 0.067476556
0.35848117 0.023834595 0.067715891
0.34965128 0.024526624 0.067554355
0.35149059 0.024966372 0.068309009
0.35463408 0.02580451 0.067266792
0.35816485 0.026644466 0.06704545
0.36218071 0.024671221 0.067393161
0.36588636 0.025496358 0.066252083
0.36665785 0.025472654 0.067799993
0.37111443 0.026260832 0.067188598
0.37706691 0.026987452 0.068621323
0.36184263 0.027460717 0.066267163
0.36702335 0.028255587 0.068626106
0.37171426 0.029017517 0.068429321
0.3765758 0.027921349 0.067535557
0.38261509 0.027702244 0.067387559
0.31056848 -0.030800065 0.069618069
0.30920866 -0.028303018 0.070787311
0.30799422 -0.025528923 0.070699967
0.30730346 -0.022243105 0.070624255
0.3041704 -0.01934997 0.071526766
0.30641538 -0.019370195 0.070600674
0.3052496 -0.016736479 0.07042294
0.30241388 -0.013739169 0.071233213
0.30472004 -0.013667849 0.070603043
0.30384955 -0.010574383 0.070660107
0.30245337 -0.0069048372 0.070365734
0.30314684 -0.0079426654 0.070921242
0.29980165 -0.0047823191 0.070948005
0.30213013 -0.00407671 0.07041692
0.29890758 -0.0014070049 0.07121259
0.30156815 -0.001737499 0.070768468
0.29801941 0.0019579269 0.071450055
0.30078512 0.0011488863 0.070441172
0.29876405 0.0057437886 0.071962863
0.30133814 0.0040479405 0.071030289
0.30395412 0.005498339 0.070633411
0.30126044 0.007070411 0.07055673
0.30562064 0.0071913861 0.069715261
0.30752325 0.006921676 0.071200058
0.31060967 0.0082789958 0.070254162
0.30751276 0.0098288208 0.070521295
0.31085467 0.011220045 0.070912361
0.31332579 0.0093562212 0.070545219
0.31614804 0.010451576 0.070938937
0.31929451 0.01168291 0.070725173
0.31423587 0.012595814 0.071079969
0.31651706 0.013503976 0.07104975
0.31881985 0.014406107 0.070914328
0.32227641 0.012846872 0.070101015
0.32572806 0.013970199 0.070979297
0.32233015 0.015744874 0.070446938
0.32659981 0.017123874 0.071881771
0.3290239 0.016304519 0.070534751
0.33191636 0.016062282 0.070725203
0.33455303 0.0169314 0.070467092
0.33728203 0.017802812 0.070340768
0.33144945 0.018871166 0.070516706
0.33459079 0.019785427 0.071859241
0.33707806 0.020650998 0.070949733
0.34011167 0.018674944 0.07033173
0.3430267 0.019541023 0.070208296
0.34615606 0.020409539 0.070541516
0.34284896 0.02240013 0.070773661
0.34579748 0.023263721 0.070434809
0.3493042 0.021265019 0.070353746
0.35271168 0.022124344 0.070811234
0.35601258 0.022980785 0.07069394
0.35937062 0.02382642 0.070094086
0.3600004 0.023822149 0.071837306
0.34947366 0.024139125 0.071880877
0.35218012 0.024978947 0.070208132
0.35593531 0.025837487 0.07132116
0.3595055 0.026660725 0.070866197
0.36348987 0.024646273 0.070534632
0.36784756 0.025446279 0.070641883
0.37247187 0.026227325 0.070452712
0.37776104 0.026964698 0.070101917
0.37815437 0.026953306 0.071019039
0.36285168 0.027466644 0.069087207
0.36349285 0.027475556 0.071059346
0.36802116 0.028256016 0.071382523
0.37276375 0.029003326 0.070932567
0.37768486 0.029728994 0.069905698
0.3784118 0.029711287 0.071421385
0.3838174 0.02765134 0.069468617
0.38429746 0.027639059 0.070754528
0.31061643 -0.031007607 0.072758913
0.30898085 -0.027405672 0.073801756
0.30958429 -0.029304404 0.073366024
0.30854613 -0.026024602 0.073441647
0.30528787 -0.022522062 0.073436141
0.30750263 -0.022697246 0.073628083
0.30648381 -0.019385416 0.073595509
0.30491439 -0.016323132 0.073675431
0.30468184 -0.013175585 0.073631704
0.30169883 -0.011264853 0.073422164
0.30391374 -0.010443489 0.073219173
0.30202702 -0.0064919605 0.073616177
0.30330989 -0.0081014438 0.073708586
0.29950505 -0.0034372024 0.073548615
0.30231664 -0.004410008 0.07351663
0.29867148 -0.00011565909 0.073415697
0.30157247 -0.001331497 0.073606573
0.30074686 0.0017563682 0.073361196
0.29771361 0.0038436092 0.074444354
0.30207247 0.0042641489 0.073980346
0.30472437 0.0055794022 0.073283397
0.30119848 0.0068027973 0.074430913
0.30415836 0.0081259441 0.073563904
0.30740198 0.0066841934 0.073499545
0.31035823 0.007876059 0.073724732
0.30711031 0.0094665661 0.072842807
0.3104364 0.010853495 0.0732494
0.31317097 0.0097660115 0.073435374
0.316315 0.010273318 0.073486634
0.31932586 0.01139023 0.073763654
0.3149243 0.01268243 0.073495746
0.31720898 0.01358261 0.073401093
0.31951815 0.014476079 0.07318902
0.32275718 0.01271189 0.073082983
0.32544768 0.013624758 0.073371954
0.32766116 0.014353953 0.073651873
0.32184166 0.015367687 0.072922945
0.32453045 0.016285582 0.073678046
0.32904989 0.015873646 0.073277615
0.33156571 0.015658574 0.073603451
0.33492333 0.016740898 0.073493928
0.33827099 0.017823309 0.073169291
0.32968071 0.018055018 0.073501289
0.33244783 0.018948616 0.073864937
0.33526266 0.019829206 0.074009299
0.33773029 0.020695709 0.073169529
0.34135088 0.018693071 0.073787406
0.34419426 0.019555738 0.073515192
0.34728724 0.020416483 0.073641941
0.34059125 0.021569738 0.073138982
0.34348091 0.022439554 0.073007882
0.34680516 0.023300376 0.073455751
0.35026801 0.021273866 0.073200583
0.35369802 0.022126546 0.073614374
0.35590377 0.022694847 0.073524721
0.35718423 0.022977673 0.073966503
0.36074448 0.023812875 0.073731594
0.35009432 0.02417013 0.074063897
0.3531189 0.025016934 0.073409617
0.35687226 0.025868028 0.074452281
0.36049521 0.026674019 0.073729455
0.36479732 0.024624322 0.073795706
0.36877263 0.025429536 0.073019564
0.36914182 0.025422784 0.073965341
0.37377542 0.026198704 0.073757626
0.37898055 0.026935806 0.073278934
0.36453214 0.02747299 0.073660374
0.36904958 0.028249497 0.073963642
0.3737922 0.028991332 0.073462278
0.37947509 0.029688122 0.073756009
0.31076807 -0.031247253 0.07569202
0.30801722 -0.027443979 0.076513022
0.30941546 -0.028624391 0.076498359
0.30803198 -0.025569826 0.076368593
0.30569437 -0.021839747 0.077799395
0.30752778 -0.022606384 0.076391414
0.30447584 -0.019944414 0.076181471
0.30650723 -0.019207738 0.076328702
0.30511439 -0.016425949 0.076714002
0.30471513 -0.014082204 0.07626497
0.30168402 -0.01088886 0.077190042
0.30405614 -0.010605465 0.076391861
0.30157444 -0.0076043494 0.076271288
0.30326742 -0.0076348186 0.076722905
0.30206013 -0.0044857902 0.076328211
0.29921201 -0.0021047518 0.076119781
0.30165663 -0.0013054507 0.076480143
0.29837722 0.001204554 0.07602191
0.30090833 0.0015258535 0.0763871
0.29871896 0.0054831021 0.075796545
0.30139342 0.003818087 0.076314755
0.30430815 0.0051604374 0.076421477
0.3061296 0.0059566186 0.075908601
0.30080995 0.006462384 0.076808691
0.30448651 0.0080384938 0.076642513
0.30806637 0.0067044641 0.076558523
0.3107186 0.0077790292 0.076517284
0.31206754 0.0083028302 0.076604307
0.30891797 0.010028724 0.0754264
0.31037462 0.010536624 0.076746047
0.31397808 0.009840576 0.076158307
0.31651953 0.010052064 0.076648913
0.31963134 0.011262733 0.076192759
0.32136083 0.011802033 0.077143639
0.31675333 0.013213839 0.075805187
0.31938809 0.014144432 0.076788217
0.32340503 0.012648772 0.075940996
0.32547653 0.013307803 0.076514512
0.32850733 0.01438459 0.076093234
0.3228794 0.015463223 0.076250494
0.3255876 0.016365137 0.076832652
0.32796627 0.017235432 0.076269627
0.33112475 0.015249304 0.076085128
0.33396485 0.016116463 0.07650803
0.33713543 0.017123895 0.076439433
0.33963567 0.017845564 0.07690756
0.33036608 0.01810414 0.075636029
0.3347072 0.019441683 0.076546848
0.33876276 0.020744668 0.076173276
0.34240198 0.018706026 0.076649405
0.34532681 0.019565454 0.076586418
0.34825197 0.020419896 0.076207168
0.34161386 0.021614518 0.076142967
0.34449863 0.022478363 0.075976044
0.34743702 0.023332968 0.075606585
0.34955752 0.022312569 0.076303512
0.35155213 0.021274293 0.076618373
0.35477686 0.022123761 0.076499388
0.35810322 0.02296984 0.076334581
0.36176753 0.023796489 0.07619337
0.35076511 0.024188478 0.075998187
0.3541081 0.025041858 0.076337397
0.35754344 0.02587752 0.076309562
0.36148453 0.026685471 0.076531082
0.36566997 0.024609869 0.075980619
0.36604738 0.024603181 0.076907396
0.37017405 0.025401497 0.076502182
0.3747946 0.026173705 0.076216012
0.37529594 0.026161894 0.077448517
0.3800821 0.026910717 0.076200984
0.36552888 0.027477019 0.076382101
0.37008369 0.028240811 0.076479614
0.37482429 0.028977707 0.07593739
0.38054836 0.029662568 0.076019228
0.38126194 0.029645287 0.07751137
0.31022337 -0.030608475 0.079164244
0.30940178 -0.028492132 0.079372175
0.30591273 -0.024103642 0.078951776
0.30831963 -0.025829909 0.079497389
0.30757213 -0.022579692 0.079410911
0.30444419 -0.019514292 0.079914689
0.30662778 -0.019378059 0.079248741
0.30571562 -0.016271027 0.079344586
0.30617568 -0.017802782 0.079665065
0.30236083 -0.012944877 0.078869939
0.3047246 -0.013529374 0.079476528
0.30139363 -0.0095370784 0.079659462
0.30406499 -0.010276454 0.079200827
0.30046964 -0.0061715655 0.080179572
0.30336714 -0.0076601515 0.079373613
0.299833 -0.0041372329 0.0782215
0.30254155 -0.0045145797 0.079679854
0.2992602 -0.0018175337 0.079510272
0.30172247 -0.0014328378 0.079222389
0.29872525 0.00046500936 0.080560207
0.30093077 0.0015924647 0.079339497
0.29844508 0.0043445365 0.079495579
0.30154896 0.0035513316 0.079423748
0.30427417 0.0049121571 0.079382747
0.30623767 0.0057632993 0.078909807
0.30152577 0.0065774471 0.079258025
0.30371541 0.0074906461 0.079528689
0.30817181 0.0070804446 0.079369664
0.3110404 0.007652977 0.079346873
0.31314722 0.0084805693 0.079280339
0.30809677 0.009317968 0.080070376
0.31106374 0.010632927 0.079155594
0.31416824 0.010914896 0.078987963
0.31671172 0.0098269721 0.079629242
0.31966433 0.010971499 0.079174675
0.32183421 0.011703013 0.079734817
0.31666148 0.012879964 0.079233378
0.32124576 0.014647598 0.078787684
0.32547191 0.013041507 0.079035304
0.32859364 0.014077468 0.079227433
0.33013558 0.014438558 0.080675066
0.32392842 0.015550397 0.079438269
0.32628232 0.016419146 0.078939319
0.32900208 0.017310305 0.079401314
0.3322373 0.015280907 0.079183169
0.33503231 0.016143827 0.079499565
0.33779994 0.017005341 0.079621613
0.34068659 0.017864155 0.07982605
0.33140236 0.018171754 0.078725189
0.33451042 0.019072488 0.080001533
0.33695757 0.019927315 0.07915625
0.33975819 0.02080116 0.079286635
0.34342992 0.018718123 0.079431884
0.34628579 0.019572053 0.07913819
0.34950176 0.020423774 0.079513259
0.34228486 0.02164552 0.07815361
0.34585455 0.022526456 0.079838842
0.34877056 0.023377903 0.07950902
0.35268325 0.021272715 0.079564124
0.3559249 0.022118771 0.079498924
0.35937959 0.022952605 0.079388946
0.36267576 0.023780214 0.078311265
0.36331138 0.023769844 0.079833448
0.35175228 0.024218371 0.078925759
0.35477325 0.025056005 0.078228831
0.35855821 0.025888497 0.079012692
0.36248514 0.026693203 0.0792377
0.36700323 0.02458472 0.079190917
0.37137756 0.025375076 0.079388261
0.37604395 0.02614438 0.079292782
0.38091466 0.026890004 0.078318506
0.38159299 0.026870986 0.079932474
0.36666405 0.027484581 0.079585969
0.37072539 0.028242586 0.078307986
0.37581944 0.028968884 0.078496426
0.31096962 -0.031688612 0.081654571
0.30735159 -0.028244786 0.081627965
0.3095237 -0.028745594 0.08241649
0.30815759 -0.025404684 0.082749657
0.30549657 -0.022602208 0.082100391
0.30757385 -0.022429423 0.082568593
0.30440855 -0.01908727 0.083636343
0.30667424 -0.019345922 0.082290903
0.30528459 -0.016098395 0.082491294
0.30615523 -0.017497052 0.082906842
0.30484524 -0.013886407 0.082803413
0.3019045 -0.010900237 0.082667828
0.30435807 -0.011086005 0.082459763
0.3020581 -0.0071341936 0.081545025
0.30347183 -0.0077443691 0.082638502
0.30231047 -0.004211464 0.082788564
0.29920796 -0.00091283582 0.083816588
0.30176738 -0.001170472 0.082269944
0.29838389 0.0017993376 0.083451867
0.30109102 0.0013361365 0.082416281
0.2986477 0.0049625635 0.083211005
0.30154118 0.0039868527 0.083001718
0.30423453 0.0046683331 0.082615659
0.3071906 0.0058707478 0.082310326
0.30115104 0.006233843 0.081518143
0.30440223 0.0076095834 0.082058489
0.30658695 0.0085180104 0.08231014
0.31034562 0.0071161855 0.08240106
0.31337506 0.0082472507 0.082797863
0.31023514 0.0099174231 0.083705753
0.31355369 0.011260029 0.083830237
0.31615242 0.0093168113 0.082624614
0.31933415 0.010517778 0.082442299
0.32281139 0.011726856 0.082828239
0.31579185 0.012146499 0.083782554
0.31885001 0.013428725 0.08240661
0.32265094 0.014766289 0.082964391
0.32568792 0.012749392 0.082556747
0.32825133 0.013604017 0.082591757
0.33083183 0.014460828 0.082615383
0.32564411 0.015912095 0.08202412
0.32767421 0.016520724 0.083031535
0.33152205 0.016340304 0.081851318
0.33448014 0.01565608 0.082419619
0.33746636 0.016598608 0.082459435
0.34037992 0.017453317 0.082775049
0.34206098 0.017881913 0.083463401
0.33244324 0.018234655 0.08172369
0.33451492 0.018709909 0.083786786
0.3379828 0.019979753 0.082114279
0.34079325 0.020843396 0.082137674
0.34445953 0.018729143 0.082187556
0.34664774 0.019297682 0.08271461
0.35057604 0.020426113 0.082323827
0.35112751 0.020428212 0.083794981
0.34380686 0.021707144 0.082501858
0.3468492 0.022565309 0.082763374
0.3497746 0.023407796 0.082341939
0.35364088 0.02127219 0.082085013
0.35553524 0.021692906 0.082748011
0.35744175 0.022110181 0.083392203
0.36064503 0.022937085 0.082475051
0.36423522 0.023757292 0.082144558
0.35306388 0.024255987 0.082756579
0.35624915 0.025088735 0.082465425
0.35956365 0.025899837 0.081705034
0.3602336 0.025906434 0.083469272
0.36363524 0.026703181 0.082384765
0.36829156 0.024563748 0.082431629
0.37252992 0.025352057 0.082253769
0.37722158 0.02611687 0.082199104
0.38271785 0.026842035 0.08274328
0.36813059 0.027490545 0.083591819
0.37167063 0.028247006 0.081068814
0.37263161 0.028247491 0.083726108
0.37703145 0.028974118 0.08225143
0.31049725 -0.031115586 0.08521945
0.30806381 -0.028728101 0.086569831
0.30937189 -0.028119745 0.085234672
0.30820769 -0.025607962 0.085132286
0.30570537 -0.02213607 0.085998297
0.30778927 -0.022896722 0.085844085
0.30679104 -0.019544052 0.085626952
0.30506444 -0.016119352 0.085674845
0.30612519 -0.017191224 0.086137891
0.30239213 -0.012234092 0.085772216
0.3050434 -0.013339808 0.08609052
0.30428696 -0.010572156 0.085516922
0.30114996 -0.0078835767 0.085390985
0.30347347 -0.0074440213 0.085852034
0.29992449 -0.003549315 0.084911644
0.30229464 -0.0048050387 0.08593142
0.30206841 -0.0019895534 0.085643053
0.30117053 0.0014915459 0.085271463
0.29874504 0.0043510664 0.085812226
0.30194673 0.0034305498 0.086091407
0.30458277 0.0045997025 0.085237794
0.30716038 0.0055604442 0.085999765
0.30218261 0.0064245518 0.085337341
0.30469126 0.0073862579 0.086838007
0.30730852 0.0070925513 0.085684106
0.31026679 0.0068222112 0.085456461
0.31336698 0.0080095557 0.085277423
0.31503513 0.0085451789 0.086264253
0.31695244 0.0092957355 0.085905366
0.31944337 0.010235902 0.08557152
0.32227701 0.011259223 0.085491031
0.32441074 0.01195175 0.086068571
0.31684232 0.012255795 0.086988866
0.31989723 0.013528544 0.085582167
0.32254654 0.014421295 0.086232394
0.3266111 0.012786059 0.085144669
0.32876074 0.013433545 0.085814834
0.33192781 0.014492502 0.085590623
0.32602534 0.015711345 0.085560977
0.32872066 0.01659115 0.085993052
0.33109009 0.017443471 0.085357845
0.33448008 0.01534081 0.085336111
0.33717069 0.016113637 0.086071335
0.34006009 0.017046228 0.085716233
0.34281465 0.017894378 0.085532695
0.33381966 0.018316347 0.085658073
0.33778739 0.01960773 0.085440576
0.33934319 0.020046532 0.085976601
0.34214926 0.020902133 0.085952371
0.34580648 0.018742003 0.085748106
0.34867522 0.019586243 0.085429139
0.35189319 0.020431023 0.085834131
0.3449918 0.021751355 0.085795224
0.34752077 0.022587616 0.084638059
0.34819567 0.022608053 0.08647114
0.35110509 0.023446238 0.086064517
0.35507497 0.021270398 0.085826561
0.35822976 0.02210515 0.085395075
0.36191443 0.022924183 0.085669138
0.36534429 0.023741584 0.084893897
0.3660121 0.023732822 0.08657676
0.35438862 0.024286889 0.086426884
0.3574332 0.025103994 0.085539818
0.36124364 0.025913812 0.086049169
0.36511678 0.026712846 0.086333573
0.36962914 0.024539929 0.085710987
0.37383473 0.025324555 0.085433908
0.37851721 0.026086412 0.085387498
0.38362691 0.026819136 0.085040927
0.38414919 0.026803013 0.08620663
0.36911663 0.027490988 0.086160272
0.37358961 0.028247036 0.08634007
0.3782593 0.028974539 0.085860491
0.31087211 -0.031555396 0.088238925
0.30953979 -0.028540045 0.088602476
0.30832419 -0.025416229 0.088567451
0.30908903 -0.026933596 0.088422894
0.30583388 -0.021498971 0.089520901
0.30765662 -0.022294616 0.088551082
0.30471039 -0.019675411 0.08808744
0.30667996 -0.01898857 0.088473201
0.30514219 -0.016163182 0.088918917
0.30624545 -0.017466351 0.089021221
0.30497018 -0.013967964 0.088439822
0.30210838 -0.010899298 0.088133633
0.30436993 -0.010732097 0.088351659
0.30119741 -0.0075782463 0.088621914
0.30351496 -0.0074638077 0.088445373
0.302293 -0.0041796877 0.088756472
0.29955035 -0.0016314462 0.088213801
0.30193931 -0.0013817378 0.088308193
0.29873234 0.0010615326 0.087849855
0.30137491 0.0016572133 0.088833228
0.29930162 0.0048412085 0.089381456
0.30264467 0.0035509598 0.089083493
0.30428925 0.0042250734 0.088416509
0.30679613 0.0052093901 0.088397719
0.30212712 0.0061588883 0.088944137
0.30429024 0.0070534684 0.089162111
0.30798531 0.0078868968 0.088473216
0.31056052 0.0066286786 0.088732146
0.31359786 0.0077570593 0.088823043
0.3156997 0.0085894307 0.08824148
0.31051344 0.0096593816 0.088255554
0.31334743 0.010821398 0.087886073
0.31657571 0.010445593 0.088570386
0.31958309 0.0099575287 0.088728771
0.32296419 0.01114546 0.088825554
0.32514676 0.011981398 0.088086106
0.31754273 0.012325406 0.089072704
0.31979954 0.013192914 0.088850856
0.32208848 0.014051586 0.088481188
0.32504141 0.01345508 0.088798717
0.32822362 0.012999455 0.088233009
0.33142033 0.014016596 0.088479102
0.33327675 0.014533403 0.089297555
0.32841337 0.016224179 0.08873044
0.33212024 0.017509259 0.08829838
0.33549455 0.015365954 0.088072009
0.33785814 0.016010277 0.089011125
0.34118676 0.017063767 0.088679947
0.34393844 0.017908586 0.088498414
0.33483559 0.018378522 0.088600993
0.33759013 0.019237593 0.08873558
0.34036303 0.020093126 0.088794172
0.34316704 0.02094293 0.08873862
0.34676477 0.018749127 0.088223219
0.3499715 0.019591242 0.088761143
0.3530356 0.020431383 0.088756241
0.3460007 0.021787757 0.088569164
0.34886712 0.022628304 0.088293016
0.35209623 0.023474179 0.088819385
0.35604534 0.021266602 0.088272966
0.35945937 0.022094587 0.088425696
0.36263654 0.022917513 0.087510765
0.3632994 0.022908807 0.089106061
0.36673319 0.023723776 0.088410206
0.35539049 0.024305994 0.089082956
0.35844982 0.025114439 0.08810088
0.36222842 0.025924798 0.088682711
0.36608467 0.026720902 0.088970572
0.37074018 0.024522088 0.088516057
0.37475896 0.025305301 0.087696642
0.37523806 0.025296334 0.088914827
0.3798416 0.026055221 0.088643871
0.38467088 0.026786879 0.087369978
0.37007707 0.027494818 0.088781059
0.37453949 0.028246826 0.088940978
0.37920624 0.028969323 0.088422477
0.31231457 -0.033279337 0.092662349
0.31053802 -0.031099891 0.091060348
0.30823326 -0.028961072 0.091249526
0.3096143 -0.028725585 0.092150122
0.30831069 -0.025622606 0.091897115
0.30902424 -0.026689157 0.090612799
0.30753654 -0.022777518 0.091509975
0.30466771 -0.019246574 0.091740817
0.30687958 -0.019538203 0.091446921
0.30584383 -0.015919302 0.090893894
0.3061569 -0.017034749 0.091620006
0.30482632 -0.01336237 0.091496572
0.30210122 -0.010539923 0.091651976
0.30431482 -0.010337254 0.09107618
0.30087051 -0.0062350556 0.091287911
0.30362731 -0.007741469 0.091589376
0.30268925 -0.0041909912 0.091293089
0.30310354 -0.0058010928 0.091446847
0.29999179 -0.0029591024 0.091603994
0.30205593 -0.0017213497 0.091308214
0.29877016 0.0013332181 0.091192037
0.30142966 0.0018499015 0.091564596
0.29838419 0.0034789331 0.091257632
0.30062121 0.0054103248 0.091407359
0.30459756 0.0041064778 0.091426291
0.30786252 0.0053938436 0.090995148
0.30389148 0.0067241229 0.091475844
0.30714217 0.0080525614 0.091696739
0.31018224 0.0069817854 0.091614515
0.31382427 0.007554987 0.091907896
0.31672561 0.0086626988 0.091385946
0.31154966 0.009794537 0.091594577
0.31376094 0.010666162 0.091527402
0.31598678 0.011534207 0.091396451
0.31895748 0.0095003899 0.091112792
0.32231992 0.010684332 0.091224745
0.3240636 0.011205338 0.092079997
0.31936577 0.01282615 0.09102267
0.32313141 0.014139052 0.091480076
0.32603607 0.012767052 0.091134973
0.32888934 0.012877519 0.091552131
0.33146706 0.013717881 0.091548719
0.3340756 0.014558521 0.091513626
0.32578591 0.015014336 0.091978967
0.32810366 0.015862256 0.091468155
0.33044869 0.016706031 0.090856075
0.33314592 0.017572533 0.091181606
0.33673188 0.015397136 0.091421314
0.34002715 0.016447779 0.09112633
0.34334025 0.017414609 0.09130837
0.3453933 0.017919961 0.092145622
0.33586091 0.018434834 0.09143734
0.33861268 0.019287342 0.091525882
0.34137815 0.020138517 0.091576517
0.34417573 0.020983204 0.091496468
0.34743679 0.018650295 0.09085311
0.34963068 0.019177902 0.091744512
0.35204959 0.019873573 0.091443919
0.35446346 0.020424757 0.092186108
0.34700426 0.021823328 0.091312766
0.34985936 0.02266027 0.091037184
0.35309049 0.023499036 0.091497779
0.35677347 0.021263309 0.090094119
0.35745203 0.021258553 0.091735438
0.36061057 0.022085786 0.091301076
0.3643159 0.02290131 0.091768324
0.36777958 0.023716077 0.091282971
0.35605949 0.024317335 0.090816975
0.35943764 0.025129378 0.090730906
0.36008993 0.025139607 0.092478275
0.36320814 0.025934985 0.091279358
0.36704636 0.026728764 0.091586232
0.37167403 0.024509592 0.090978116
0.37239826 0.024497289 0.092778638
0.37611523 0.025281435 0.091212988
0.38084781 0.026030982 0.091092266
0.38120452 0.026023194 0.091998637
0.37103713 0.027497193 0.091349661
0.37547469 0.028247707 0.091542035
0.38011083 0.028969623 0.091080964
0.31085721 -0.031762011 0.094913282
0.30794188 -0.028589137 0.094946101
0.30961534 -0.028610423 0.094462156
0.3082782 -0.025197834 0.094589472
0.30749419 -0.022234017 0.094408162
0.30462283 -0.018822491 0.095373988
0.30684963 -0.019310815 0.094279036
0.30534548 -0.015913397 0.093879133
0.30618376 -0.016960807 0.094310522
0.30485606 -0.01345574 0.094636463
0.30206501 -0.01016482 0.095325112
0.30452728 -0.010864062 0.094151944
0.30133361 -0.0075572692 0.094447702
0.30369389 -0.0077228695 0.094523273
0.3024123 -0.0041211084 0.094334774
0.30317602 -0.0057800384 0.094069064
0.29971129 -0.0016717538 0.093981028
0.30192402 -0.0010552503 0.094371065
0.29871964 0.0016562715 0.095097125
0.30172476 0.0021122743 0.094342448
0.29921472 0.0046170726 0.093270481
0.30132306 0.0055251978 0.0937289
0.30414397 0.0036604491 0.094526805
0.30745316 0.0049656751 0.094106071
0.30907828 0.0054348744 0.095833391
0.30457032 0.0068405028 0.093872368
0.30783629 0.0081500895 0.093926847
0.3107594 0.0062197722 0.094135307
0.31314895 0.0070664515 0.09456557
0.31613636 0.0081519522 0.094560057
0.31807134 0.0087570697 0.095478266
0.31093466 0.0092753256 0.094896793
0.31369501 0.01035375 0.094752729
0.31647509 0.011426827 0.094520405
0.31976265 0.0094824797 0.094217464
0.3224234 0.010408206 0.094368681
0.324907 0.011245693 0.094463035
0.31927717 0.012495935 0.094202518
0.32153219 0.013350974 0.093910426
0.32417431 0.014222555 0.094409585
0.32813945 0.012356143 0.094162643
0.33127823 0.013336512 0.094560459
0.33462688 0.014381594 0.094724767
0.3264727 0.015067793 0.093937814
0.32848242 0.01566064 0.094822884
0.33147821 0.01677217 0.093708605
0.33451188 0.017652357 0.09493199
0.33780521 0.015421716 0.094266877
0.34054208 0.016256141 0.094211757
0.34358555 0.017092884 0.094773948
0.34635997 0.017926985 0.094554394
0.33688116 0.01848916 0.094223976
0.33961582 0.019340072 0.094348073
0.3420437 0.020170223 0.093444467
0.34906927 0.018764744 0.094132237
0.35225436 0.019591771 0.094381377
0.35534632 0.02043095 0.094630122
0.34658793 0.021440804 0.094131127
0.35084781 0.022691131 0.093745947
0.35441649 0.023529071 0.094986886
0.35844684 0.021257391 0.094333589
0.36188009 0.022074031 0.09440048
0.36544737 0.022890296 0.094633244
0.36871278 0.023703823 0.093634106
0.36946157 0.02369054 0.095385566
0.35704431 0.024336794 0.093446761
0.36106306 0.025154496 0.095074177
0.36449119 0.02595076 0.094755977
0.36816195 0.026736945 0.094589293
0.37306404 0.02448369 0.094338268
0.37735444 0.025253601 0.094156854
0.38214865 0.025998026 0.094179429
0.37198842 0.027499916 0.093908191
0.37671655 0.028247889 0.094959497
0.38180152 0.028938657 0.094790079
0.31046274 -0.031135362 0.098051786
0.30812514 -0.028206151 0.098848417
0.30952835 -0.028167875 0.09707085
0.30837771 -0.025511323 0.097733617
0.3090896 -0.026623951 0.098613687
0.30592662 -0.022780307 0.098534286
0.30790058 -0.022792676 0.097497188
0.30576006 -0.0207508 0.096774884
0.30694783 -0.019471478 0.097632945
0.30523989 -0.016004367 0.097309113
0.3062222 -0.017002927 0.097618319
0.30526465 -0.013402594 0.09756244
